# .PCD v0.7 - Point Cloud Data file format
VERSION 0.7
FIELDS x y z
SIZE 4 4 4
TYPE F F F
COUNT 1 1 1
WIDTH 1310
HEIGHT 1
VIEWPOINT 0 0 0 1 0 0 0
POINTS 1310
DATA ascii
0.022883415 0.21994187 0.008517297
0.023425546 0.21991184 0.0083764251
0.024018787 0.21987809 0.0082979901
0.024586249 0.2198462 0.0081879729
0.025088184 0.21981949 0.0079980893
0.025552023 0.21979508 0.0077618435
0.026003852 0.21977307 0.0075107431
0.026474547 0.21974844 0.0072828196
0.027031947 0.21971688 0.0071606319
0.027655594 0.2196811 0.0071190791
0.028395597 0.21963544 0.007219689
0.029017333 0.21959873 0.0071759727
0.029552545 0.21956994 0.0070266826
0.029985823 0.21954852 0.0067529697
0.0302958 0.21953629 0.0063290978
0.030578382 0.21952695 0.0058714123
0.030847125 0.21951905 0.0053971019
0.0310486 0.21951543 0.0048406255
0.030680999 0.21957 0.0027876552
0.030953225 0.21956198 0.0023175459
0.031266097 0.21954963 0.0018969737
0.043866478 0.21856765 0.016467206
0.044409309 0.2185376 0.016327316
0.044960119 0.21850626 0.016197059
0.045418236 0.21848303 0.015953787
0.04581036 0.218465 0.015629826
0.046212256 0.21844567 0.015317895
0.046619609 0.21842717 0.015012623
0.04708397 0.2184027 0.014776984
0.047626883 0.21837264 0.014636977
0.048166096 0.21834272 0.014492705
0.048614424 0.2183208 0.014237306
0.049002141 0.21830297 0.013908105
0.049328618 0.21829014 0.013504199
0.049614791 0.21827967 0.013051003
0.049851056 0.21827389 0.012537065
0.050067075 0.21826978 0.011998393
0.050249044 0.2182688 0.011418051
0.050461285 0.21826482 0.010874728
0.050656788 0.2182624 0.010310972
0.050865799 0.2182585 0.0097637018
0.051036909 0.21825789 0.0091702286
0.051229313 0.21825558 0.0086027049
0.051433787 0.21825185 0.0080500171
0.051752314 0.21823929 0.0076363748
0.05208347 0.21822634 0.0072380621
0.052457154 0.21820994 0.0068917656
0.052841365 0.21819219 0.0065582637
0.057831474 0.21781115 0.01184393
0.058167838 0.21779701 0.011452133
0.058506981 0.21778275 0.011063553
0.058822222 0.21777134 0.010645871
0.059133239 0.21775903 0.01022312
0.05947046 0.21774584 0.0098322686
0.059782669 0.21773352 0.0094109103
0.060064353 0.21772422 0.0089522814
0.060338125 0.21771516 0.0084841112
0.060651071 0.21770379 0.0080636228
0.060908228 0.21769631 0.0075751003
0.061035611 0.21769916 0.0069282185
0.061214484 0.21769729 0.0063443221
0.061585583 0.21768099 0.005994767
0.06203042 0.21765922 0.0057351673
0.06245219 0.21763821 0.0054476317
0.062819488 0.21762203 0.005093324
0.06315808 0.21760879 0.0047042407
0.063439623 0.2175995 0.0042454358
0.063677087 0.21759365 0.003732888
0.063929126 0.21758634 0.0032381434
0.064129569 0.21758276 0.0026805475
0.064305626 0.21758199 0.0020930227
0.06447579 0.21758141 0.0014984123
0.064567529 0.21758746 0.00080793723
0.022658341 0.22072357 0.0081800297
0.023335341 0.22068302 0.0082037374
0.023972619 0.22064477 0.0081790602
0.024539161 0.22061293 0.0080680028
0.025043759 0.22058615 0.0078812605
0.025472358 0.22056492 0.0076019522
0.025900871 0.22054468 0.0073224502
0.026368309 0.22052014 0.0070904829
0.026929017 0.2204895 0.0069723232
0.027597245 0.22044922 0.0069852341
0.028305732 0.22040561 0.0070474502
0.028889656 0.22037217 0.0069575123
0.0293561 0.22034869 0.006724312
0.029727075 0.22033237 0.0063746758
0.030020274 0.22032166 0.0059301788
0.030304849 0.22031327 0.005475047
0.03055609 0.22030596 0.0049793404
0.030605361 0.22031544 0.004237148
0.030308373 0.2203525 0.0030724071
0.030454151 0.22035375 0.0024480782
0.03074928 0.22034398 0.0020058407
0.031115267 0.22032784 0.0016500615
0.043900937 0.21932065 0.01644741
0.044439696 0.21929072 0.016302416
0.044975132 0.21926092 0.016153496
0.045420367 0.21923912 0.015894325
0.045783296 0.21922308 0.015534976
0.046175286 0.21920508 0.015210836
0.046564221 0.21918717 0.014883124
0.047017395 0.21916512 0.014633695
0.04752934 0.21913709 0.014455998
0.048072841 0.219107 0.014316893
0.048573557 0.21908034 0.014125518
0.049009696 0.21905887 0.013855414
0.049369663 0.21904393 0.013492161
0.049667582 0.21903308 0.013053453
0.049913764 0.21902695 0.012551507
0.050112635 0.2190244 0.011991873
0.050265886 0.2190254 0.011376457
0.050473619 0.21902257 0.010827601
0.050646469 0.2190219 0.010236229
0.050839677 0.21901956 0.0096696662
0.050989352 0.21902065 0.0090500694
0.051142871 0.21902163 0.0084350053
0.05137635 0.21901694 0.0079175374
0.051677868 0.21900596 0.0074831089
0.05203934 0.21898997 0.0071220072
0.052443922 0.21897154 0.0068131043
0.052841626 0.21895336 0.0064961892
0.053178638 0.21893919 0.0061050802
0.053493187 0.21892776 0.0056865141
0.053864032 0.21891145 0.0053367019
0.058635324 0.21854374 0.010355807
0.058926009 0.21853413 0.0099081304
0.05926948 0.21851976 0.0095249126
0.059572741 0.21850872 0.0090925852
0.059855513 0.21849935 0.0086353682
0.060147688 0.21848971 0.0081895404
0.060461164 0.21847832 0.0077696582
0.060329348 0.21850187 0.0068066102
0.060420841 0.21850793 0.0061159814
0.060919113 0.21848135 0.0059215249
0.061400145 0.21845637 0.005706124
0.061914533 0.21842824 0.0055315103
0.062353462 0.21840668 0.0052647274
0.062707566 0.21839194 0.0048944838
0.063030109 0.21837926 0.0044856519
0.063324161 0.21836951 0.0040420964
0.06358736 0.21836184 0.0035609361
0.063802309 0.21835774 0.0030209506
0.063991368 0.21835552 0.0024494007
0.06415873 0.21835606 0.0018511619
0.064262822 0.21836069 0.0011759773
0.064487942 0.21835628 0.00064824149
0.022248972 0.22152044 0.0076178475
0.022984989 0.22147392 0.007713546
0.023793649 0.22142294 0.007897988
0.02442826 0.22138581 0.0078698592
0.024923503 0.22135934 0.0076719271
0.025345009 0.22133936 0.0073838281
0.025783122 0.22131778 0.0071159815
0.026283704 0.22129114 0.0069244308
0.026881479 0.22125624 0.0068516256
0.027546022 0.2212171 0.0068600653
0.028211709 0.22117694 0.0068699149
0.02875521 0.22114685 0.0067308079
0.02916107 0.22112837 0.0064236904
0.029511902 0.22111374 0.0060493052
0.02979454 0.2211044 0.0055919131
0.030051768 0.2210979 0.0051034726
0.030234795 0.22109689 0.0045243502
0.030108221 0.22112025 0.0035677031
0.029998258 0.22114307 0.002631098
0.030218367 0.22113982 0.0020973189
0.030532338 0.22112742 0.0016781595
0.030896213 0.22111236 0.001319685
0.0438914 0.22007714 0.016373854
0.04441518 0.2200487 0.016210627
0.04495275 0.22001882 0.016064238
0.045404114 0.21999583 0.015812622
0.045776911 0.21998046 0.015465172
0.046148121 0.21996415 0.015115695
0.046519786 0.21994783 0.014766942
0.046947017 0.21992664 0.014485866
0.047405798 0.21990338 0.014243382
0.047931712 0.21987489 0.014082685
0.048478976 0.2198447 0.013948133
0.048961055 0.21981968 0.013733951
0.049353078 0.21980166 0.013410009
0.049692847 0.2197884 0.01302222
0.049969181 0.21978025 0.012556902
0.050189525 0.219776 0.01202359
0.050392818 0.21977331 0.011469295
0.050584979 0.219772 0.010901302
0.050715327 0.21977475 0.010258015
0.050907813 0.21977343 0.0096905716
0.051075071 0.21977395 0.0090923533
0.051214561 0.21977641 0.0084601939
0.051399089 0.21977533 0.007883016
0.051705055 0.21976422 0.0074540228
0.052089773 0.21974646 0.007121033
0.052512266 0.2197264 0.0068342676
0.052906014 0.21970835 0.006512329
0.053230785 0.21969661 0.0061062071
0.053551741 0.21968397 0.0056955498
0.053953946 0.21966562 0.0053838566
0.054388717 0.21964417 0.0051120883
0.054830618 0.21962249 0.0048488956
0.055327982 0.21959595 0.0046534948
0.056014217 0.21955408 0.0046885246
0.056792647 0.21950515 0.0048359465
0.057533294 0.21945944 0.0049372455
0.05813247 0.2194255 0.0048660934
0.058700547 0.2193926 0.0047568772
0.059379578 0.21935198 0.0047831368
0.060694039 0.21926007 0.0055845799
0.061257213 0.21922831 0.0054693995
0.061782897 0.21919982 0.0053085461
0.062229432 0.21917699 0.0050510624
0.062576026 0.21916351 0.004671501
0.062888861 0.21915215 0.0042509297
0.063176982 0.21914262 0.003800096
0.063417524 0.21913669 0.0032913173
0.063623384 0.2191339 0.0027401848
0.063834056 0.21913098 0.0021948218
0.064028777 0.21912856 0.0016302038
0.0642239 0.21912718 0.0010658037
0.022095215 0.22229676 0.0073675513
0.022782598 0.22225487 0.0074037807
0.023568396 0.22220467 0.0075603467
0.024230279 0.2221656 0.0075656464
0.024737522 0.22213773 0.0073822569
0.025203418 0.22211425 0.0071483497
0.025664862 0.22209091 0.0069090053
0.026191205 0.22206242 0.0067489371
0.026817247 0.22202554 0.0067104828
0.027470112 0.22198682 0.0067047281
0.028085437 0.22195134 0.0066531058
0.028568976 0.22192524 0.0064408826
0.02894735 0.22190869 0.0061002783
0.029287782 0.22189541 0.0057132747
0.029527429 0.22189051 0.0052032433
0.029665891 0.221894 0.0045697549
0.029781632 0.22189823 0.0039085671
0.029714361 0.22191861 0.0030240398
0.029794917 0.22192605 0.0023200838
0.030041087 0.22191991 0.0018180404
0.030375481 0.22190683 0.0014237138
0.030713353 0.22189364 0.0010335883
0.043865785 0.22083516 0.016280651
0.044427514 0.22080347 0.016163822
0.044948734 0.22077514 0.015997432
0.045401372 0.22075309 0.015747296
0.045760658 0.22073717 0.015383469
0.046103772 0.22072381 0.014999704
0.046469972 0.22070867 0.014644183
0.046857804 0.2206908 0.014315058
0.047300518 0.22066909 0.014052926
0.047772847 0.22064538 0.013826813
0.04830689 0.22061561 0.013676027
0.048823982 0.22058742 0.01350475
0.049268138 0.22056566 0.013244268
0.049633376 0.22055055 0.012887511
0.049932398 0.22054066 0.012450005
0.050210673 0.22053248 0.011987256
0.050457384 0.22052631 0.011485917
0.050646484 0.2205251 0.010914255
0.050792016 0.22052735 0.010289458
0.050956585 0.22052796 0.0096879024
0.051096372 0.2205314 0.0090559851
0.051276639 0.22053048 0.0084737381
0.051468536 0.22052918 0.0079053938
0.05175133 0.22052082 0.0074479664
0.052154005 0.22050245 0.0071370983
0.052594654 0.22048083 0.0068723168
0.053000383 0.22046237 0.0065650195
0.053318791 0.22044982 0.006151299
0.053618878 0.22043988 0.0057150107
0.054016128 0.22042169 0.005397371
0.054452792 0.2204002 0.0051278751
0.05488275 0.22037992 0.0048500216
0.055316865 0.22035849 0.0045774681
0.055822954 0.22033167 0.0043925699
0.056336574 0.22030458 0.0042168815
0.057228781 0.22024581 0.0045032054
0.057999559 0.22019711 0.004641341
0.058456309 0.22017394 0.0043963064
0.058882706 0.22015378 0.004114368
0.06043157 0.22004201 0.0052019423
0.061145648 0.21999823 0.005270794
0.061618887 0.21997347 0.0050459336
0.062069446 0.21995053 0.0047933562
0.06239827 0.21993864 0.0043922421
0.062656797 0.21993208 0.0039052721
0.062922671 0.2199243 0.003427255
0.063192464 0.21991639 0.0029541599
0.06343843 0.21991128 0.0024518445
0.063618153 0.21991038 0.0018688934
0.021555308 0.2230909 0.0074481871
0.022054564 0.22306429 0.0072550643
0.022730723 0.22302276 0.007277926
0.0234432 0.22297902 0.0073448531
0.024062034 0.22294341 0.007297528
0.02456193 0.22291678 0.0071050944
0.025026925 0.22289333 0.0068702456
0.025545303 0.22286509 0.0067003425
0.026103117 0.22283351 0.0065786839
0.026775397 0.22279312 0.0065966016
0.027431902 0.22275425 0.0065953229
0.027957056 0.22272579 0.0064338613
0.028390173 0.2227044 0.0061598727
0.028740823 0.22269078 0.0057853134
0.02902294 0.22268145 0.0053273132
0.02923971 0.22267932 0.0047892965
0.029355519 0.22268455 0.0041281926
0.029417649 0.22269361 0.003401489
0.029513236 0.22270051 0.0027157497
0.029727943 0.22269745 0.0021752957
0.029963896 0.22269367 0.0016607931
0.030286998 0.22268096 0.0012527164
0.030646712 0.22266604 0.00088918582
0.043860443 0.2215915 0.016212277
0.044427119 0.22155964 0.016101396
0.044996619 0.22152768 0.01599393
0.045430694 0.22150628 0.01572118
0.045786694 0.22149149 0.01535331
0.046128318 0.22147816 0.014967702
0.046442904 0.22146773 0.014549021
0.046789356 0.22145325 0.014169492
0.047178451 0.22143632 0.013841844
0.047624901 0.22141451 0.013584169
0.04809802 0.22138977 0.013359227
0.04863175 0.22136104 0.013208091
0.049135152 0.22133428 0.013019959
0.049546577 0.22131462 0.012719586
0.049910758 0.22129954 0.012361614
0.050218783 0.22128935 0.011935063
0.050470591 0.22128303 0.011439849
0.050672472 0.22128139 0.01088379
0.050849915 0.22128157 0.010297822
0.051048435 0.22128005 0.0097377393
0.051192693 0.22128333 0.0091113569
0.051350556 0.22128518 0.0085014403
0.051534295 0.22128412 0.0079232985
0.051810376 0.22127602 0.0074577248
0.052178562 0.2212608 0.0071045607
0.052630827 0.22123876 0.0068540899
0.053037003 0.22121929 0.0065473216
0.053378128 0.22120599 0.0061611999
0.053701133 0.2211943 0.0057528811
0.05407954 0.22117874 0.0054121614
0.054503188 0.22115767 0.0051269056
0.054944858 0.221137 0.0048633432
0.055375434 0.22111569 0.0045862906
0.055781551 0.22109722 0.0042794291
0.056152113 0.22108093 0.0039292639
0.056517214 0.22106582 0.0035723299
0.056948811 0.22104549 0.0032965988
0.057172135 0.22104211 0.0027666651
0.057481989 0.22103088 0.0023424048
0.057866544 0.22101411 0.0020093396
0.058656104 0.22096379 0.0021704584
0.061542697 0.22074021 0.0048905648
0.061785869 0.22073519 0.0043849302
0.062396653 0.22071496 0.0035253298
0.062714823 0.22070342 0.0031111408
0.062972307 0.22069694 0.0026229545
0.021468312 0.22386196 0.0072793472
0.022024777 0.22383043 0.007156021
0.022711799 0.22378854 0.0071920143
0.023331434 0.22375292 0.0071456516
0.023915678 0.22371946 0.0070562633
0.024418805 0.22369273 0.0068677748
0.024889477 0.2236681 0.0066397525
0.025432501 0.22363903 0.0065000225
0.026059464 0.22360216 0.0064626075
0.026740577 0.22356045 0.0064914161
0.0273556 0.22352399 0.0064395545
0.027833153 0.22350009 0.0062197428
0.028256167 0.22348005 0.0059335846
0.028603978 0.22346652 0.0055555133
0.028878614 0.22345845 0.0050882902
0.029129822 0.22345316 0.004592374
0.029296987 0.22345467 0.0039938632
0.0294117 0.22345996 0.0033313446
0.029544435 0.22346465 0.0026908312
0.02974252 0.22346313 0.0021300241
0.029951267 0.22346126 0.0015823888
0.030284982 0.2234482 0.0011872286
0.030663095 0.22343266 0.00084603764
0.043846533 0.22234914 0.016133364
0.044459403 0.22231273 0.016078871
0.045006111 0.22228254 0.015943615
0.045464877 0.2222593 0.015701029
0.045826271 0.22224531 0.015339527
0.046142586 0.22223383 0.014923158
0.046439983 0.22222401 0.014483631
0.046746526 0.22221383 0.014055232
0.047089502 0.22220048 0.013671292
0.047485199 0.22218335 0.013351711
0.047928307 0.22216162 0.01309001
0.048443884 0.22213349 0.01291679
0.048970349 0.22210497 0.012756802
0.049429446 0.2220827 0.012514554
0.049833152 0.22206432 0.012204806
0.050148509 0.22205287 0.011787201
0.050405473 0.2220474 0.011298195
0.050655536 0.22204112 0.010800883
0.050849006 0.22204077 0.010234561
0.051067859 0.22203757 0.0096990932
0.051258102 0.22203732 0.0091288276
0.051439852 0.22203735 0.0085481182
0.051613301 0.22203767 0.0079574361
0.051873244 0.22203207 0.0074721221
0.052221596 0.22201853 0.0070947558
0.052631542 0.2219989 0.0067925416
0.053017825 0.22198211 0.006461476
0.053383201 0.22196697 0.0061048977
0.053733975 0.22195335 0.0057304176
0.054125905 0.22193635 0.0054062828
0.054568596 0.22191465 0.0051440522
0.055033825 0.22189118 0.0049093589
0.055482619 0.22186826 0.0046545863
0.055871353 0.22185138 0.0043266034
0.056200959 0.22183946 0.0039263526
0.05650603 0.22182935 0.0034962073
0.056785598 0.22182111 0.0030348338
0.057074755 0.22181255 0.0025853161
0.057336085 0.22180593 0.0021016663
0.057565726 0.22180234 0.0015794495
0.057769336 0.22180066 0.0010254923
0.057955258 0.22180055 0.00044986792
0.058107369 0.22180258 -0.00016695913
0.058260195 0.22180557 -0.00078301504
0.021156985 0.22465256 0.006836548
0.021965161 0.2246006 0.0070203776
0.022693168 0.22455435 0.0071065552
0.023280621 0.22452079 0.0070210127
0.023799878 0.2244935 0.0068521556
0.024284113 0.22446841 0.0066406038
0.024800245 0.22444026 0.0064680902
0.025370136 0.2244083 0.0063610571
0.026040006 0.22436798 0.0063760886
0.026675019 0.22432981 0.0063487012
0.027252778 0.2242966 0.006251323
0.027712543 0.22427431 0.0060098618
0.028143853 0.22425398 0.0057336781
0.028533913 0.22423704 0.0054072663
0.028877281 0.22422364 0.005023757
0.029201366 0.22421192 0.0046167541
0.029460795 0.22420634 0.0041309269
0.029595226 0.22420996 0.0034925295
0.029700909 0.22421755 0.002818848
0.029851176 0.22422063 0.0021996312
0.030010179 0.22422244 0.0015913248
0.030304652 0.22421369 0.0011480805
0.030638702 0.22420163 0.00075330678
0.043926634 0.22309762 0.01616925
0.044471376 0.22306848 0.016031526
0.045029052 0.22303693 0.015909687
0.045475107 0.22301511 0.01565158
0.045827091 0.22300144 0.015278593
0.046154544 0.2229896 0.014875712
0.046439119 0.22298118 0.01442058
0.046734259 0.22297242 0.013978131
0.047048863 0.22296202 0.013559546
0.047391992 0.22294864 0.013175881
0.047794357 0.2229303 0.012864462
0.048248574 0.22290818 0.012616152
0.048749175 0.22288154 0.012424698
0.049196035 0.2228597 0.012167552
0.049608767 0.22284098 0.011868857
0.049971581 0.22282597 0.011509115
0.050295938 0.22281423 0.011102464
0.050564297 0.22280735 0.010627511
0.050803974 0.22280344 0.010117366
0.051018067 0.22280139 0.0095761102
0.051232427 0.22279933 0.0090352073
0.051427417 0.22279792 0.0084706303
0.051637627 0.22279601 0.007924743
0.051916718 0.22278878 0.0074627437
0.052264534 0.22277525 0.0070846723
0.052645437 0.22275862 0.0067470297
0.053034417 0.22274171 0.0064193057
0.053391114 0.22272789 0.0060521085
0.053745106 0.22271416 0.0056815725
0.054141559 0.22269599 0.0053629726
0.054590963 0.22267406 0.0051088873
0.055039562 0.22265217 0.0048538428
0.055516161 0.2226273 0.0046331035
0.055915207 0.22261006 0.0043175463
0.056264214 0.22259648 0.0039408691
0.05658029 0.22258502 0.0035243444
0.056849711 0.22257812 0.0030506086
0.057120189 0.22257119 0.0025780862
0.057364739 0.22256713 0.0020740088
0.057578169 0.2225651 0.001531967
0.057783246 0.22256334 0.0009797588
0.058002517 0.22256014 0.00044482015
0.058114596 0.22256649 -0.00022095442
0.058193736 0.22257598 -0.00092698261
0.020543851 0.22545314 0.0068280343
0.021076087 0.22542444 0.0066750548
0.021889456 0.2253713 0.0068652984
0.02265247 0.22532286 0.0069940714
0.023214806 0.22529115 0.0068777334
0.023699354 0.22526605 0.006666732
0.024171799 0.22524235 0.0064406972
0.024708565 0.22521247 0.0062933462
0.025334217 0.22517566 0.0062544588
0.026043873 0.225132 0.0063179703
0.026657015 0.22509558 0.0062638316
0.027165547 0.22506866 0.006082016
0.027620997 0.22504653 0.0058352938
0.028083518 0.22502315 0.0055972654
0.028552271 0.22499959 0.0053669689
0.029004749 0.22497755 0.0051165577
0.029457141 0.22495551 0.004866261
0.029827841 0.22494021 0.0045159636
0.030120481 0.22493154 0.0040706471
0.030312326 0.22493124 0.0035023056
0.030219797 0.22495547 0.0025866935
0.03016049 0.22497657 0.0017116908
0.030363217 0.2249759 0.0011565499
0.030683592 0.2249653 0.00074493606
0.04393702 0.22385344 0.016120076
0.044493441 0.22382191 0.015996555
0.045042191 0.22379166 0.015863847
0.045491043 0.22376975 0.015609059
0.045834642 0.22375734 0.015225905
0.046146251 0.22374704 0.014803534
0.046452537 0.22373691 0.01437488
0.046733093 0.22372963 0.013914629
0.047016729 0.22372125 0.01345836
0.047339007 0.22371058 0.01304916
0.047677595 0.22369836 0.012659766
0.048048213 0.22368306 0.012309585
0.048461981 0.22366431 0.012012007
0.048891023 0.22364408 0.011733115
0.049318716 0.22362389 0.01145255
0.049716238 0.22360568 0.011135264
0.050067697 0.22359203 0.010761667
0.050393198 0.22358125 0.010356415
0.050665304 0.22357425 0.0098859165
0.050895035 0.22357067 0.0093636801
0.051113427 0.2235685 0.0088276844
0.051342964 0.22356591 0.0083051771
0.051626325 0.22355756 0.0078485552
0.051940382 0.22354715 0.0074292645
0.052295849 0.22353338 0.0070604775
0.052680269 0.22351661 0.0067272335
0.053051673 0.22350129 0.0063779168
0.053411484 0.22348738 0.0060145864
0.05374901 0.22347517 0.0056239767
0.054108024 0.22346026 0.005259485
0.054531507 0.22344121 0.00497384
0.05499199 0.22341791 0.0047332589
0.055439673 0.22339603 0.004477174
0.055870727 0.22337572 0.0042007351
0.056236111 0.2233606 0.0038441541
0.056558363 0.22334993 0.0034348564
0.056882195 0.2233382 0.0030275965
0.057162099 0.22333096 0.0025666598
0.057406083 0.22332691 0.0020617759
0.057645313 0.223322 0.0015512165
0.05783923 0.22332263 0.00098531228
0.058027305 0.22332245 0.00041231606
0.058151379 0.22332844 -0.00023881253
0.058310091 0.22333124 -0.00084778294
0.020469852 0.22622378 0.0066748601
0.021060277 0.22619013 0.0065930095
0.021824054 0.22614166 0.006722548
0.022542566 0.22609672 0.0067970497
0.02312544 0.22606331 0.0067058941
0.023629013 0.22603656 0.0065181311
0.024113663 0.22601146 0.0063071093
0.024679497 0.22597961 0.0061950712
0.025350861 0.22593926 0.0062119486
0.026055105 0.22589478 0.0062689986
0.026632 0.22586258 0.0061705625
0.027127184 0.22583614 0.005972337
0.027589642 0.22581376 0.0057342127
0.028081294 0.2257884 0.0055317897
0.028607465 0.22575989 0.0053713489
0.029178079 0.2257279 0.0052653942
0.029751144 0.22569484 0.0051623248
0.030236967 0.22566968 0.0049525984
0.03065357 0.22565085 0.0046585342
0.030972894 0.2256403 0.0042457422
0.031328358 0.2256265 0.0038769562
0.031585343 0.225621 0.0033880481
0.030363623 0.22574306 0.0010940162
0.030635733 0.22573607 0.00062356703
0.043987509 0.22460492 0.016119733
0.044519614 0.22457622 0.015966574
0.045048919 0.22454759 0.015810098
0.045487631 0.22452703 0.015542943
0.045860399 0.22451167 0.015195394
0.046190806 0.22449972 0.014796104
0.04647794 0.22449222 0.014343823
0.046760552 0.22448488 0.013886223
0.047045905 0.22447644 0.013431955
0.04733441 0.22446889 0.012981441
0.047637247 0.22445989 0.012548473
0.047970861 0.22444782 0.012153031
0.048325267 0.22443406 0.011783028
0.048705146 0.22441846 0.011444056
0.049078058 0.22440311 0.011096681
0.049435012 0.22438926 0.010729741
0.049783781 0.22437571 0.010352905
0.05012944 0.22436225 0.0099722035
0.050440595 0.22435296 0.0095493058
0.05072587 0.22434551 0.0090948446
0.050992876 0.2243387 0.0086182225
0.051305212 0.22432835 0.0081969313
0.051627196 0.22431768 0.0077872798
0.051976427 0.22430512 0.0074109603
0.052332014 0.22429132 0.0070422497
0.052722625 0.22427437 0.0067165466
0.053086214 0.2242593 0.0063576689
0.053447202 0.22424532 0.0059956349
0.053810343 0.22423129 0.0056362329
0.054145969 0.22421917 0.0052432446
0.054494232 0.22420563 0.0048658969
0.054912969 0.22418672 0.004574365
0.055339336 0.22416656 0.0042922348
0.055770762 0.22414623 0.0040161284
0.056153089 0.22413056 0.0036802385
0.056507356 0.22411682 0.0033100583
0.05684194 0.22410472 0.0029158518
0.057138175 0.22409591 0.0024748165
0.057395026 0.22409043 0.0019857315
0.057629235 0.2240877 0.0014688186
0.057823628 0.22408731 0.00090353936
0.058001548 0.22408848 0.00031818077
0.058148935 0.22409268 -0.00030454714
0.058283731 0.22409829 -0.00094272103
0.020485673 0.22698742 0.0066312896
0.021081734 0.22695358 0.0065562697
0.02183843 0.22690535 0.0066773277
0.022440623 0.2268703 0.0066098622
0.023031093 0.22683565 0.0065280092
0.023557443 0.22680713 0.0063679409
0.024105463 0.2267769 0.006234155
0.024688195 0.2267435 0.006142823
0.025432177 0.2266967 0.0062483568
0.026063178 0.22665867 0.0062161591
0.026605338 0.22662964 0.0060751736
0.027087718 0.22660461 0.0058614425
0.027580272 0.22657923 0.0056599621
0.028102584 0.22655086 0.0054949867
0.028688431 0.22651735 0.0054075206
0.0293019 0.22648191 0.0053537199
0.029958997 0.22644204 0.0053531444
0.030533936 0.2264089 0.0052523511
0.031074598 0.22637892 0.0051097302
0.031519748 0.22635813 0.0048503689
0.031807039 0.22635062 0.0043983636
0.032125402 0.22634009 0.0039843358
0.043886654 0.22537045 0.015934614
0.044517219 0.22533245 0.015901791
0.045080651 0.2253007 0.015786868
0.045534652 0.22527862 0.015538496
0.045916155 0.22526295 0.015201546
0.046244852 0.22525208 0.014800043
0.046532672 0.22524455 0.014348645
0.04682596 0.22523585 0.013904016
0.047118608 0.22522816 0.013458489
0.047396522 0.22522098 0.012995195
0.047677763 0.22521369 0.012535825
0.04799201 0.22520429 0.012116699
0.048317447 0.22519252 0.011711363
0.048638236 0.22518186 0.011300318
0.048966814 0.225171 0.010898737
0.04927795 0.22516167 0.01047574
0.049590424 0.22515135 0.010054626
0.04990996 0.22514077 0.0096418932
0.050233975 0.22513001 0.0092347944
0.050558142 0.22511929 0.0088278726
0.05090265 0.22510688 0.0084457602
0.051257856 0.2250931 0.0080767199
0.051625952 0.22507891 0.0077232625
0.051994964 0.22506367 0.0073711593
0.05238156 0.22504784 0.0070403339
0.052767828 0.22503102 0.0067091715
0.053135149 0.22501682 0.0063549504
0.053525738 0.22499987 0.0060291458
0.053907908 0.2249842 0.005692983
0.054264851 0.22497034 0.005326042
0.054578774 0.22495997 0.0049065761
0.054915555 0.22494881 0.0045149848
0.055275194 0.22493488 0.0041512819
0.055671416 0.22491772 0.0038323104
0.05605606 0.22490098 0.0034991279
0.056400344 0.22488858 0.0031168582
0.056724854 0.2248778 0.002710171
0.057013527 0.22487026 0.0022600312
0.057287231 0.22486322 0.0017914549
0.057535112 0.22485903 0.001291303
0.057750195 0.22485793 0.00075116847
0.057916485 0.22486049 0.00015160255
0.058064908 0.22486465 -0.00047000777
0.058168903 0.2248733 -0.0011458043
0.01988139 0.2277877 0.0066334549
0.02044981 0.2277558 0.0065246755
0.021161605 0.22771105 0.0065910295
0.021880511 0.22766609 0.0066659637
0.022414763 0.22763732 0.0065154359
0.022951394 0.22760747 0.0063679088
0.023487236 0.22757865 0.0062192064
0.024075095 0.22754507 0.0061341953
0.024748579 0.22750364 0.0061538173
0.025450926 0.22745924 0.0062084915
0.026059441 0.22742397 0.0061487416
0.026572376 0.22739691 0.0059721684
0.027055688 0.22737186 0.0057595763
0.027565788 0.22734489 0.0055794893
0.028121796 0.22731437 0.0054556355
0.028765377 0.22727595 0.0054385746
0.029434673 0.22723463 0.0054530138
0.030104354 0.22719333 0.0054678852
0.030752502 0.22715475 0.0054563396
0.031337135 0.22712128 0.0053673834
0.031833414 0.22709478 0.0051705707
0.032219887 0.22707894 0.0048396681
0.032556511 0.2270678 0.0044478029
0.032848075 0.22705914 0.0040011713
0.043935265 0.22612199 0.015931994
0.044547938 0.22608659 0.01587723
0.045098145 0.22605628 0.015746271
0.04558884 0.22603098 0.015542611
0.045988668 0.22601371 0.015227919
0.046325255 0.22600155 0.014836169
0.046603203 0.22599536 0.01437276
0.046864204 0.22598973 0.013888661
0.047154859 0.22598213 0.013440777
0.047434412 0.22597589 0.012979291
0.04774645 0.22596556 0.01255755
0.048071139 0.2259548 0.012151238
0.048378531 0.22594562 0.011723784
0.048716508 0.22593442 0.011333589
0.049028095 0.2259251 0.01091132
0.049293905 0.22591932 0.010432992
0.049590416 0.2259105 0.0099923098
0.049896743 0.22590138 0.009563541
0.05020801 0.22589205 0.0091407234
0.050519876 0.22588275 0.0087188063
0.050871216 0.22587009 0.0083449204
0.051271446 0.22585182 0.0080309696
0.051658168 0.22583599 0.0077003203
0.052043021 0.22582021 0.0073673967
0.052447036 0.22580279 0.0070578856
0.052858263 0.22578414 0.0067572463
0.053248651 0.22576819 0.0064311717
0.053639494 0.22575122 0.0061056241
0.054030217 0.22573526 0.0057796873
0.054410271 0.22571965 0.0054410882
0.054753967 0.22570728 0.005057917
0.055075675 0.22569659 0.0046479125
0.0553848 0.22568737 0.004222462
0.055718325 0.22567533 0.0038271379
0.056056954 0.22566409 0.003437628
0.05637908 0.22565344 0.0030281544
0.056688897 0.22564416 0.0026036855
0.056970432 0.22563687 0.0021447716
0.057267912 0.22562902 0.0017051129
0.057525866 0.2256235 0.0012174407
0.05770582 0.22562559 0.00063432567
0.057860725 0.22562952 2.0705163e-005
0.057997182 0.22563608 -0.0006154608
0.058194414 0.22563662 -0.0011775391
0.01969656 0.22857006 0.006344859
0.020446073 0.22852108 0.0064572566
0.021235719 0.22846974 0.0066185696
0.021885842 0.22843009 0.0066095926
0.022419453 0.22840133 0.0064583789
0.022926889 0.22837447 0.00627515
0.023464076 0.22834559 0.0061281179
0.024105959 0.22830722 0.0061091511
0.024844505 0.22825958 0.0062081255
0.02551822 0.22821814 0.006227904
0.026048306 0.22818951 0.0060722921
0.026552238 0.22816274 0.0058847647
0.027038168 0.2281386 0.0056753177
0.027544919 0.22811174 0.0054912064
0.028136287 0.22807805 0.0054104943
0.028776728 0.22803873 0.0053896802
0.029471371 0.22799559 0.0054350728
0.030171499 0.22795224 0.005487022
0.030843221 0.22791086 0.0055044452
0.031466167 0.22787413 0.0054622218
0.032008044 0.22784407 0.0053210938
0.032459188 0.2278221 0.0050691105
0.032801859 0.22781073 0.0046846066
0.033050951 0.22780652 0.0041859457
0.044584114 0.22683956 0.015859436
0.045102991 0.22681227 0.015690245
0.045620024 0.22678408 0.015518673
0.046044175 0.22676501 0.015233816
0.046378113 0.22675395 0.014838712
0.04669236 0.22674453 0.014419584
0.046959814 0.22673871 0.013943377
0.047240447 0.2267324 0.013483207
0.047529884 0.22672486 0.013033831
0.047828455 0.22671695 0.012595489
0.048142288 0.22670758 0.01217583
0.048454244 0.22669825 0.011753894
0.048787761 0.22668619 0.011358473
0.049119413 0.22667521 0.01096056
0.049412906 0.22666751 0.010516192
0.049706869 0.22665977 0.010072136
0.04999359 0.22665331 0.0096195238
0.050305407 0.22664396 0.0091974102
0.050616033 0.22663468 0.0087739052
0.050943241 0.22662385 0.0083705569
0.051328346 0.22660808 0.0080378875
0.051735833 0.22658955 0.007732789
0.052133836 0.22657332 0.0074158041
0.052553929 0.22655438 0.0071259411
0.05297637 0.22653434 0.0068389801
0.05337508 0.22651811 0.0065229759
0.053771697 0.22650094 0.0062044356
0.054177731 0.22648348 0.0058973804
0.05457595 0.22646625 0.0055807652
0.054958783 0.22645055 0.0052453866
0.055317633 0.22643664 0.0048808195
0.055643983 0.22642685 0.004476415
0.055979222 0.22641474 0.0040829927
0.056295075 0.22640529 0.00366579
0.056574509 0.22639905 0.0032042265
0.056891792 0.22638853 0.0027888836
0.057175502 0.22638217 0.0023323866
0.057474606 0.22637425 0.0018947478
0.057750128 0.22636814 0.0014283573
0.057929575 0.22637026 0.00084473006
0.058142617 0.22636925 0.00030204561
0.058320493 0.22637242 -0.00028362032
0.05848971 0.22637486 -0.00087979157
0.017463114 0.22945954 0.0067662243
0.017901555 0.22943898 0.0064987158
0.018413313 0.22941196 0.0063208472
0.01894702 0.22938322 0.0061696135
0.0196364 0.22934024 0.0062085078
0.020394292 0.22929098 0.0063312706
0.0212765 0.22923154 0.0066055194
0.021908928 0.22919346 0.0065748738
0.022451214 0.22916345 0.0064342762
0.022954945 0.22913767 0.0062464783
0.023500692 0.22910751 0.0061099837
0.024177331 0.22906497 0.0061334688
0.024930265 0.22901689 0.0062499726
0.025538847 0.22898062 0.0061903158
0.026038799 0.228955 0.0059978655
0.026516646 0.2289311 0.0057785045
0.026989233 0.22890739 0.0055526467
0.027483311 0.22888197 0.0053532068
0.028092064 0.22884671 0.0052936133
0.028723158 0.22880867 0.005261397
0.029373951 0.22876902 0.005253206
0.030109871 0.22872248 0.0053489245
0.030827917 0.22867654 0.0054229116
0.031481411 0.22863677 0.0054180576
0.032051023 0.22860481 0.0053106714
0.032517772 0.22858229 0.0050777094
0.032877009 0.22856839 0.0047135763
0.033166114 0.22856185 0.0042637512
0.044540737 0.22760016 0.01574447
0.045095887 0.22756869 0.015619671
0.045637794 0.22753966 0.015478429
0.046102058 0.22751623 0.015242502
0.046477586 0.22750179 0.014898273
0.046777461 0.22749384 0.014461401
0.047053527 0.22748771 0.013995716
0.047349278 0.22747995 0.013553957
0.047622047 0.22747493 0.013084231
0.047923911 0.22746593 0.012649929
0.048230045 0.22745781 0.012220989
0.048544273 0.2274484 0.011801762
0.048869897 0.22743762 0.011396587
0.049201962 0.2274266 0.010999206
0.049519964 0.2274171 0.01058463
0.049824737 0.22740899 0.010153924
0.050132092 0.22739983 0.0097262766
0.050456025 0.2273901 0.009318986
0.050764516 0.22738089 0.0088929478
0.051084794 0.22737126 0.0084810816
0.051450744 0.22735713 0.0081250928
0.0518438 0.2273411 0.0078021595
0.05225379 0.22732246 0.0074999304
0.052667633 0.22730473 0.0072024334
0.0531101 0.22728404 0.006939834
0.053526826 0.22726521 0.0066458508
0.053927913 0.22724789 0.0063328445
0.05432605 0.22723168 0.0060160346
0.054734178 0.22721311 0.0057116263
0.055158943 0.22719401 0.0054273568
0.055543818 0.22717825 0.0050945319
0.05593311 0.22716233 0.0047670426
0.05629985 0.22714816 0.004411919
0.056616776 0.22713868 0.0039960295
0.056938037 0.22712903 0.0035854997
0.057292223 0.22711629 0.0032151248
0.057624549 0.22710527 0.0028180983
0.057920158 0.22709751 0.0023761615
0.058218747 0.22708961 0.0019379184
0.058468416 0.2270864 0.0014398489
0.05872681 0.22708185 0.00095259398
0.058946721 0.2270806 0.00041833054
0.05902338 0.22709216 -0.00029098894
0.05914928 0.22710006 -0.00094014965
0.017223939 0.2302276 0.0072141285
0.017618477 0.23021151 0.0068930397
0.018108521 0.23018622 0.0066886935
0.018619992 0.23015921 0.0065103727
0.019150075 0.23013058 0.0063547613
0.019777786 0.23009266 0.0063183247
0.020526178 0.23004472 0.0064294105
0.021292429 0.22999418 0.0065622386
0.021903608 0.22995883 0.00650563
0.022427507 0.2299304 0.00634248
0.022931788 0.22990462 0.0061553884
0.023534078 0.22986956 0.0060879039
0.024261761 0.22982232 0.0061737448
0.024995506 0.22977586 0.0062667346
0.025581352 0.22974235 0.0061792694
0.026038155 0.22972018 0.0059342161
0.026464548 0.229701 0.0056519695
0.026924308 0.22967874 0.0054105073
0.027408563 0.22965363 0.0051990543
0.027947281 0.22962472 0.0050540641
0.028505716 0.22959313 0.004932995
0.029037975 0.22956441 0.0047801109
0.029687949 0.22952475 0.0047708601
0.030578759 0.22946404 0.0050558439
0.031344738 0.22941352 0.0051883198
0.032002557 0.22937362 0.0051888246
0.03248737 0.22934949 0.0049778642
0.029452063 0.22964229 0.0004683584
0.029748525 0.22963548 2.7368777e-005
0.030206542 0.22961326 -0.00021620281
0.030700743 0.22958782 -0.00041553471
0.044572629 0.22835326 0.015721515
0.045111991 0.22832431 0.01557721
0.045674637 0.2282926 0.015461422
0.046146713 0.22826891 0.015235052
0.046550762 0.22825249 0.01492543
0.046887565 0.22824132 0.014533936
0.047164805 0.22823516 0.014069548
0.047448121 0.22822879 0.013612617
0.047724437 0.22822265 0.01314719
0.048001207 0.22821751 0.012682174
0.048298866 0.22820966 0.012242889
0.048592716 0.22820193 0.011798753
0.048920959 0.22819205 0.011396723
0.04926322 0.22818071 0.01101169
0.049582966 0.22817114 0.010599215
0.049901124 0.22816159 0.010184916
0.050224714 0.22815087 0.0097771902
0.05056686 0.22813955 0.009392078
0.050895356 0.22812966 0.0089903027
0.051231846 0.22811851 0.0085982624
0.051572874 0.22810622 0.008211947
0.051951848 0.22809163 0.0078717237
0.052377045 0.22807252 0.007588082
0.052802749 0.22805338 0.0073049525
0.053217076 0.22803462 0.0070080822
0.053648204 0.2280153 0.0067317244
0.054065868 0.22799642 0.0064388784
0.054492138 0.22797726 0.0061565544
0.054906473 0.22795953 0.00585947
0.05534251 0.22793904 0.0055890754
0.05575081 0.22792149 0.0052847285
0.056151144 0.2279052 0.004970747
0.056536779 0.2278894 0.0046386858
0.05690743 0.2278751 0.0042883912
0.057286784 0.22785951 0.0039488086
0.057636201 0.22784793 0.0035726484
0.057956889 0.22783832 0.0031613149
0.058280312 0.22782759 0.0027533127
0.058630683 0.22781599 0.0023782905
0.058967449 0.22780482 0.0019866014
0.059202477 0.22780207 0.0014707502
0.059442014 0.22780016 0.00096031465
0.059656732 0.2278001 0.00041963626
0.059726588 0.22781289 -0.00029802229
0.059877008 0.22781897 -0.00091728661
0.017316811 0.23098366 0.0072648637
0.017828584 0.23095764 0.0070867827
0.018358003 0.23092902 0.0069303853
0.018885527 0.23090047 0.0067716148
0.019420877 0.23087166 0.0066224993
0.020005982 0.23083718 0.0065341676
0.020650662 0.23079872 0.0065185204
0.021327283 0.23075616 0.0065419073
0.021894764 0.23072428 0.0064319884
0.022409987 0.23069714 0.0062582213
0.022951502 0.23066814 0.0061165476
0.023549806 0.23063321 0.0060443515
0.024391789 0.23057614 0.0062697046
0.025050454 0.23053518 0.0062711686
0.025589015 0.23050626 0.0061259028
0.026036322 0.23048541 0.0058691716
0.026459076 0.23046637 0.00558245
0.026911177 0.23044434 0.0053317035
0.027405564 0.2304199 0.0051325019
0.027898122 0.23039451 0.0049310224
0.028361399 0.23037212 0.004693958
0.028755255 0.23035604 0.0043719858
0.02907937 0.23034532 0.0039648684
0.029354259 0.23034023 0.0034975773
0.029558703 0.23034151 0.0029443568
0.029745836 0.23034436 0.0023699012
0.029387951 0.23039648 0.0011298442
0.029464811 0.23040903 0.00042076316
0.029797588 0.23039898 2.4131499e-005
0.030247945 0.23037703 -0.00022875518
0.030728206 0.23035307 -0.00044521037
0.044496868 0.22911696 0.0155671
0.045115393 0.22908035 0.015519535
0.045699574 0.22904691 0.015429853
0.04621711 0.22901972 0.015258992
0.046633698 0.22900087 0.014964828
0.046985805 0.22898918 0.014591907
0.047314912 0.22897829 0.014190934
0.047589526 0.22897321 0.013723289
0.047825981 0.22897142 0.013209187
0.048105139 0.22896621 0.012746961
0.048382923 0.22896001 0.012283279
0.048686109 0.22895196 0.011850744
0.048988096 0.22894499 0.011416508
0.049311992 0.22893524 0.01100902
0.049641646 0.22892433 0.010608753
0.049971204 0.22891442 0.010208194
0.050314162 0.22890306 0.0098241419
0.050654545 0.22889176 0.0094368318
0.050995208 0.22888049 0.0090498757
0.05135861 0.22886643 0.0086908229
0.05170238 0.22885503 0.0083077345
0.05206544 0.22884201 0.007948136
0.052454576 0.22882609 0.0076203737
0.052880965 0.22880693 0.007338129
0.053329363 0.22878602 0.0070828125
0.053762287 0.22876565 0.006808551
0.054187737 0.22874652 0.0065251663
0.054644868 0.22872533 0.0062804511
0.055089489 0.22870456 0.0060204798
0.055508777 0.22868563 0.0057296539
0.055942178 0.22866623 0.0054560071
0.056354083 0.22864856 0.0051559396
0.056752458 0.22863133 0.0048395973
0.057149939 0.22861513 0.0045220032
0.057557203 0.22859761 0.0042165387
0.057939954 0.22858293 0.0038809646
0.058278888 0.22857168 0.003492007
0.058631308 0.228559 0.0031194352
0.059031531 0.22854172 0.0028051753
0.059381992 0.22853011 0.0024301335
0.059638306 0.22852665 0.0019403286
0.059852734 0.22852658 0.0013991967
0.060071073 0.2285264 0.00086289644
0.060218424 0.22853258 0.00023995992
0.060415685 0.22853409 -0.00032223016
0.060577035 0.22853982 -0.00092806946
0.017501615 0.23173261 0.0074276361
0.01805032 0.23170237 0.007294734
0.018658359 0.23166613 0.0072343717
0.019182548 0.23163769 0.0070716729
0.0196741 0.23161334 0.0068689589
0.020172719 0.23158774 0.0066749379
0.020748213 0.23155461 0.0065748505
0.021352012 0.23151951 0.0065093087
0.021913562 0.23148781 0.0063921069
0.02243429 0.23146048 0.0062249955
0.022967875 0.23143174 0.006073683
0.023630753 0.23139067 0.0060804263
0.024477091 0.23133244 0.0063110376
0.025085859 0.23129717 0.0062515419
0.02561111 0.23126869 0.0060900617
0.0260485 0.23124917 0.0058211247
0.026457239 0.23123159 0.0055174064
0.026923727 0.23120908 0.0052841892
0.027439892 0.2311819 0.0051115612
0.027957607 0.2311537 0.0049408749
0.028427858 0.23113106 0.0047122119
0.028816465 0.23111516 0.0043838406
0.029166672 0.23110355 0.0040085437
0.029452678 0.2310971 0.0035549514
0.029674377 0.2310968 0.0030226735
0.029957853 0.23109142 0.0025658067
0.029468484 0.23117706 0.0003620917
0.029797927 0.23116715 -3.8506463e-005
0.030239321 0.23114648 -0.00030241162
0.030770093 0.23111783 -0.00045714993
0.03124113 0.23109518 -0.00068492908
0.045086719 0.22983949 0.01542245
0.045713317 0.22980262 0.0153847
0.046252765 0.22977267 0.015240589
0.046698868 0.22975184 0.014982466
0.047097966 0.22973558 0.014666893
0.04743661 0.22972439 0.014277483
0.047731582 0.22971763 0.013834648
0.047985584 0.22971424 0.013341937
0.048227534 0.22971225 0.01283449
0.04851317 0.22970682 0.012380254
0.048774958 0.22970316 0.011897007
0.049074069 0.22969526 0.011459369
0.049383383 0.22968704 0.011034079
0.049706336 0.22967732 0.010625456
0.050046008 0.22966708 0.01023736
0.05039575 0.22965448 0.0098615512
0.050747454 0.22964282 0.0094880974
0.051097035 0.22963023 0.0091120144
0.05144763 0.22961861 0.0087371487
0.051799685 0.22960594 0.0083642416
0.052165009 0.22959283 0.0080073569
0.052549928 0.22957805 0.0076745125
0.052975506 0.22955891 0.0073912051
0.053414904 0.22953832 0.0071249343
0.053875238 0.22951701 0.0068840655
0.054326102 0.22949503 0.0066317283
0.054801963 0.22947124 0.0064100111
0.055251807 0.22945027 0.006156344
0.055678874 0.22943108 0.0058748834
0.056112938 0.22941168 0.0056020189
0.056559324 0.22939084 0.0053442493
0.056962296 0.22937447 0.0050333105
0.057366326 0.22935706 0.0047238991
0.057792202 0.22933793 0.0044410443
0.058196791 0.22932148 0.0041321274
0.058599465 0.22930412 0.0038209474
0.059016496 0.22928628 0.0035272017
0.059381582 0.22927316 0.0031701569
0.059707224 0.22926338 0.0027647708
0.060023606 0.22925389 0.0023481734
0.060304046 0.22924863 0.0018878328
0.060518883 0.22924855 0.0013472317
0.060724668 0.22925079 0.00079536997
0.060922638 0.22925228 0.00023416057
0.061025545 0.22926295 -0.00044306275
0.017678037 0.2324809 0.0075802561
0.018232416 0.23245044 0.0074543813
0.018846612 0.23241398 0.0074014594
0.019386038 0.23238403 0.0072572492
0.019862887 0.23236118 0.0070366552
0.020349018 0.23233603 0.0068274792
0.020868666 0.23230875 0.0066590523
0.021421559 0.23227833 0.0065313322
0.021958053 0.23224849 0.0063836277
0.022456419 0.23222293 0.006189351
0.023002613 0.23219375 0.0060532726
0.023729749 0.23214652 0.0061384058
0.024575714 0.23208828 0.0063686827
0.025148556 0.23205622 0.0062652417
0.025615714 0.23203368 0.0060328115
0.026035137 0.23201476 0.0057421634
0.026467308 0.23199542 0.005466924
0.026941843 0.23197265 0.0052434243
0.027471788 0.23194401 0.0050876364
0.028032031 0.23191236 0.0049689636
0.028561059 0.23188376 0.0048121335
0.029027257 0.23186128 0.0045784665
0.029435728 0.23184472 0.004274182
0.029762346 0.2318349 0.0038701305
0.029985663 0.23183455 0.0033398736
0.030214597 0.23183399 0.0028163521
0.029405266 0.23195033 0.00022180565
0.029806253 0.23193404 -9.145122e-005
0.030232675 0.23191588 -0.00037382077
0.030785397 0.23188448 -0.00050161406
0.031280629 0.23185901 -0.00069987401
0.045163918 0.23058906 0.015454728
0.045677286 0.23056199 0.01527878
0.04627385 0.23052813 0.015204273
0.046773657 0.2305015 0.015011856
0.047180407 0.23048501 0.014705571
0.047550295 0.23047176 0.014354199
0.047870718 0.23046212 0.013942609
0.048169751 0.23045522 0.013504779
0.048423506 0.23045285 0.013011604
0.048643474 0.23045261 0.012477325
0.048917405 0.23044756 0.012008796
0.049187277 0.23044364 0.011535463
0.049473304 0.23043819 0.011081657
0.049788214 0.23042876 0.010663315
0.050109901 0.2304201 0.010253101
0.050452054 0.23040876 0.0098680872
0.050808042 0.23039696 0.0094997985
0.051154338 0.23038547 0.0091196718
0.051504247 0.23037389 0.0087439241
0.051852405 0.23036133 0.0083662858
0.052235544 0.23034662 0.0080311475
0.052644566 0.23033004 0.007727568
0.053094536 0.2303081 0.0074742902
0.053549089 0.230287 0.0072263144
0.054000437 0.23026599 0.0069745909
0.054465406 0.23024355 0.0067393323
0.054935418 0.23022093 0.0065105138
0.055407606 0.23019722 0.0062842239
0.055868015 0.23017491 0.006043449
0.056303822 0.23015545 0.0057726847
0.056743212 0.23013486 0.0055064149
0.057158895 0.23011705 0.0052109994
0.057588406 0.23009779 0.0049326206
0.058021136 0.23007841 0.0046581877
0.058458827 0.23005886 0.0043897023
0.058873862 0.23004109 0.0040936004
0.059283368 0.23002349 0.0037906459
0.059668399 0.23000872 0.0034578815
0.059994467 0.22999892 0.0030531213
0.060341194 0.22998743 0.0026736241
0.060633078 0.22998078 0.0022270195
0.06087748 0.22997969 0.0017223442
0.061108939 0.22997807 0.0012020972
0.06128113 0.22998343 0.00060929265
0.061414264 0.22999109 -3.1111762e-005
0.017767228 0.23327106 0.0076228688
0.018314324 0.23324086 0.007488043
0.018934816 0.23320319 0.0074429484
0.019511983 0.23317099 0.0073448671
0.020020749 0.23314406 0.0071632098
0.020497732 0.23312122 0.0069427919
0.02097597 0.2330973 0.0067238631
0.02147162 0.23307183 0.0065261512
0.021972921 0.23304614 0.0063353684
0.02247005 0.2330206 0.0061395024
0.023029491 0.23298901 0.0060198661
0.023814771 0.23293681 0.0061759343
0.024664238 0.23287849 0.0064105103
0.025190037 0.23285 0.0062497361
0.025646597 0.23282883 0.0060042152
0.026043292 0.23281266 0.0056857569
0.026474364 0.23279333 0.0054091057
0.026953954 0.23276941 0.0051918449
0.027493883 0.23274043 0.0050483448
0.028070178 0.23270725 0.0049492205
0.028621703 0.23267689 0.0048197331
0.029117234 0.23265141 0.0046219425
0.02953266 0.23263362 0.0043262718
0.029845253 0.23262627 0.0039049136
0.030085173 0.23262435 0.0033949139
0.03037728 0.2326187 0.0029486669
0.029446188 0.23274814 0.0002049394
0.029781792 0.232738 -0.00018826686
0.030239444 0.23271681 -0.00043240469
0.030809507 0.23268484 -0.00053907465
0.031325385 0.23265767 -0.00071208458
0.044974741 0.23139657 0.015158701
0.045625962 0.23135687 0.015151139
0.046252482 0.23131903 0.015113309
0.046806857 0.23128857 0.014987432
0.047249056 0.23126788 0.014724479
0.047662176 0.23125017 0.014425904
0.048020463 0.23123829 0.01406052
0.048325244 0.2312312 0.013629601
0.048615251 0.2312246 0.01318072
0.048880249 0.23122086 0.01270132
0.049112979 0.23122016 0.012182549
0.049347963 0.23121941 0.011666389
0.049612209 0.23121668 0.011186011
0.049907327 0.23120992 0.010743352
0.050202869 0.23120315 0.010301322
0.050522819 0.23119456 0.0098891072
0.050862983 0.23118427 0.0095014265
0.051214404 0.23117264 0.0091276215
0.051562577 0.2311611 0.0087497719
0.051933669 0.23114778 0.0083998935
0.052316695 0.23113307 0.0080646751
0.052758642 0.23111238 0.0078014676
0.053249367 0.23108806 0.0075976914
0.053748399 0.23106247 0.0074042026
0.05424232 0.23103705 0.007204487
0.054724053 0.23101304 0.0069897585
0.055180073 0.2309919 0.0067436295
0.055635966 0.23096973 0.006497534
0.056082577 0.23094891 0.0062399209
0.056519054 0.2309294 0.0059699416
0.056971885 0.23090836 0.0057199653
0.057394817 0.23089032 0.0054334039
0.057846099 0.23086831 0.0051815985
0.058277629 0.23084898 0.0049056746
0.058679111 0.23083265 0.004592889
0.059096321 0.2308148 0.0042995159
0.05952929 0.23079543 0.0040252386
0.05993215 0.23077904 0.0037142215
0.060296923 0.23076595 0.0033566263
0.060635753 0.23075572 0.0029673763
0.0609475 0.2307474 0.0025451686
0.061206102 0.23074487 0.0020578625
0.061441489 0.23074411 0.0015422311
0.0616083 0.23074962 0.00094285235
0.061795369 0.2307535 0.00036830176
0.062009312 0.23075445 -0.00017355196
0.017775092 0.23406796 0.0075663212
0.018329985 0.2340375 0.0074409563
0.01896644 0.23399928 0.0074152192
0.019558828 0.23396456 0.0073358389
0.020108752 0.23393425 0.0072044283
0.020589825 0.23391028 0.0069890125
0.021089233 0.23388466 0.0067958552
0.021553017 0.23386227 0.0065593026
0.022036254 0.23383817 0.0063465182
0.022513859 0.23381531 0.0061266888
0.023085985 0.23378228 0.0060224794
0.023916949 0.23372556 0.0062344251
0.024706624 0.23367223 0.0063959453
0.025226563 0.23364493 0.0062279711
0.025652345 0.23362678 0.0059449226
0.026059318 0.23360927 0.0056390064
0.026486546 0.23359109 0.0053576073
0.02696925 0.23356703 0.0051442133
0.027482461 0.23353997 0.0049679941
0.028040029 0.23350942 0.0048458679
0.028551105 0.23348242 0.0046671163
0.02901879 0.23345987 0.0044352934
0.029348362 0.23344995 0.004034834
0.029607207 0.23344742 0.0035477811
0.029884949 0.23344322 0.0030837916
