# .PCD v0.7 - Point Cloud Data file format
VERSION 0.7
FIELDS x y z
SIZE 4 4 4
TYPE F F F
COUNT 1 1 1
WIDTH 1445
HEIGHT 1
VIEWPOINT 0 0 0 1 0 0 0
POINTS 1445
DATA ascii
1.7119759 0.76960856 0.045889501
1.7122806 0.76982427 0.0455059
1.712582 0.77003622 0.0451128
1.7128876 0.77025306 0.0447319
1.7131582 0.77043128 0.0442545
1.7134135 0.77059269 0.043734599
1.7136339 0.77071577 0.043118998
1.7138284 0.7708106 0.042432498
1.7140759 0.77096331 0.041891299
1.7143073 0.77109861 0.041306201
1.7145616 0.77125895 0.0407837
1.714838 0.77144372 0.040322401
1.7150716 0.77158129 0.039742999
1.7152686 0.77167881 0.039063402
1.715476 0.77178746 0.038411599
1.7157212 0.77193797 0.037864398
1.7158974 0.77201241 0.0371271
1.7160958 0.77211142 0.036451198
1.7163428 0.77226382 0.0359088
1.7165794 0.77240479 0.035337999
1.7167829 0.77250922 0.034675401
1.7170111 0.77264094 0.034081399
1.7172796 0.77281696 0.033598199
1.7175183 0.77296007 0.033032998
1.7177699 0.77311736 0.032503001
1.7180256 0.77327943 0.031984799
1.7182869 0.77344751 0.031481899
1.7185478 0.77361512 0.0309777
1.7188135 0.77378809 0.0304869
1.7190785 0.77396011 0.029994
1.7193663 0.77415723 0.0295636
1.7196425 0.7743417 0.0291017
1.7199241 0.77453196 0.0286543
1.7202024 0.77471882 0.0281983
1.7204638 0.77488685 0.027695199
1.7207403 0.77507162 0.0272341
1.7209804 0.7752164 0.0266729
1.7212129 0.77535284 0.0260904
1.7214441 0.77548778 0.025504701
1.7216622 0.77560836 0.0248827
1.7219026 0.77575356 0.024322201
1.7221566 0.7759136 0.0237992
1.7224436 0.77610981 0.023366701
1.722757 0.77633518 0.0230071
1.7230819 0.77657306 0.0226792
1.7234154 0.77682036 0.022374701
1.7237873 0.77710992 0.0221758
1.7241786 0.77742076 0.022030501
1.7245833 0.77774632 0.021921899
1.7249787 0.77806175 0.0217882
1.7253445 0.77834457 0.0215725
1.7257111 0.77862811 0.0213589
1.726069 0.77890235 0.021121601
1.7264504 0.77920246 0.0209492
1.7267599 0.77942342 0.0205789
1.7281755 0.78085941 0.023251699
1.7286831 0.78129792 0.023426199
1.7291396 0.78168035 0.023460001
1.7297763 0.78226072 0.0239898
1.7306856 0.78314054 0.025269801
1.7311944 0.78358042 0.0254476
1.731705 0.78402227 0.0256302
1.7322046 0.7844522 0.025783099
1.7327645 0.78494823 0.0261016
1.7334837 0.78561926 0.026858401
1.7342335 0.7863239 0.0276994
1.7348313 0.78686148 0.028122099
1.7354225 0.78739184 0.0285265
1.7360102 0.78791869 0.028922001
1.7366054 0.78845346 0.029337499
1.7372723 0.78906691 0.029950099
1.7380629 0.78981644 0.0309036
1.7389016 0.79061872 0.031989198
1.7396075 0.79127502 0.032709099
1.7415564 0.79329675 0.036849301
1.7421436 0.79382282 0.037243001
1.7439095 0.79564357 0.0408796
1.7445065 0.79618037 0.041300099
1.7453196 0.79695457 0.042315401
1.7459803 0.79756111 0.042910799
1.7465721 0.79809242 0.043317501
1.7471558 0.7986145 0.043701399
1.7478808 0.79929197 0.0444743
1.748566 0.79992563 0.045137402
1.7491156 0.80041015 0.045427099
1.7496469 0.80087483 0.045667101
1.7501779 0.80133915 0.0459061
1.7506824 0.80177432 0.0460722
1.7511805 0.80220258 0.046220899
1.7516742 0.80262578 0.046356998
1.7522005 0.80308497 0.046583299
1.7528676 0.80369884 0.047196701
1.7534335 0.80420142 0.047531601
1.7539533 0.80465347 0.047739901
1.7544634 0.80509484 0.047921501
1.7549584 0.80551946 0.048061199
1.7554274 0.80591553 0.048129398
1.7558783 0.80629212 0.048148502
1.7563608 0.80670297 0.0482537
1.7568733 0.80714691 0.048441701
1.7574141 0.80762017 0.048700798
1.7578795 0.808011 0.0487542
1.7583417 0.80839854 0.048799701
1.7588004 0.80878246 0.048836399
1.759227 0.80913323 0.048792399
1.7596686 0.8094995 0.048785899
1.7601144 0.80987006 0.048790202
1.7605439 0.81022388 0.048753299
1.7609978 0.81060272 0.048777699
1.7614714 0.81100208 0.048851799
1.7619272 0.81138301 0.0488813
1.7624207 0.81180286 0.049005199
1.7629265 0.81223559 0.0491606
1.763427 0.81266272 0.0493025
1.7639297 0.81309211 0.049449801
1.7643926 0.81348038 0.049497101
1.764833 0.81384546 0.049487699
1.7652926 0.81423032 0.049526799
1.7657444 0.8146072 0.0495461
1.7662288 0.81501746 0.049647
1.7670118 0.81573653 0.050499499
1.767566 0.81621915 0.050776601
1.7680155 0.81659365 0.050790299
1.7684109 0.81691217 0.050667599
1.768778 0.81720144 0.050473701
1.7691337 0.81747895 0.050251301
1.7694709 0.81773728 0.049982101
1.7697877 0.81797457 0.049661599
1.7700789 0.81818545 0.049277
1.7703255 0.81835026 0.048779901
1.6986263 0.75872588 0.038514599
1.69998 0.7600916 0.0410145
1.7007661 0.76083523 0.0419541
1.7014182 0.76143193 0.0425255
1.7020769 0.76203597 0.043115102
1.7027103 0.76261216 0.043635301
1.7032427 0.76307774 0.043877501
1.7037975 0.76356792 0.044181801
1.7043569 0.7640633 0.044498902
1.7049025 0.76454341 0.044777799
1.7054435 0.7650184 0.045043901
1.7060276 0.7655406 0.0454286
1.7065283 0.76597154 0.045584101
1.7069751 0.7663433 0.045591202
1.7074137 0.76670611 0.045576099
1.7078509 0.76706743 0.045556899
1.7083429 0.76748866 0.045688398
1.7088488 0.76792526 0.045858301
1.709322 0.76832604 0.045938
1.7097474 0.76867449 0.0458869
1.710139 0.76898575 0.0457424
1.710501 0.76926464 0.045516599
1.71084 0.7695182 0.045227598
1.7112027 0.76979792 0.045003999
1.7115213 0.77002919 0.044658899
1.7118009 0.77021778 0.044206701
1.7120682 0.77039266 0.043720201
1.7123463 0.77057981 0.043264501
1.7126056 0.77074611 0.042756502
1.7128596 0.77090669 0.0422341
1.7131273 0.77108204 0.041748799
1.7133667 0.77122653 0.041186199
1.7135715 0.77133322 0.040528599
1.713793 0.77145821 0.039916798
1.7140465 0.77161801 0.039392602
1.7142564 0.77173018 0.038748901
1.7144612 0.77183688 0.038091298
1.7147427 0.77202743 0.0376442
1.7149999 0.77219146 0.037130401
1.7152251 0.77232045 0.036529001
1.7154119 0.77240729 0.035821501
1.7155811 0.77247488 0.035066001
1.7158409 0.7726419 0.034559701
1.7160997 0.77280772 0.034050401
1.7163498 0.77296376 0.033516899
1.7166212 0.77314341 0.033042099
1.7168667 0.77329469 0.032496601
1.7171191 0.77345335 0.031969398
1.7173674 0.77360755 0.031431101
1.7176044 0.77374953 0.030862
1.7178785 0.77393192 0.0303945
1.7181761 0.77414036 0.029991999
1.7184546 0.7743277 0.0295368
1.7187353 0.7745176 0.029087899
1.7190335 0.77472645 0.028686499
1.71933 0.77493358 0.0282808
1.7196259 0.77514005 0.027873499
1.7199018 0.7753244 0.027411001
1.720166 0.77549607 0.0269164
1.7204201 0.77565694 0.0263946
1.7206597 0.77580154 0.025832299
1.7208765 0.77592123 0.0252073
1.721117 0.7760669 0.0246477
1.72138 0.77623725 0.024149699
1.7216685 0.77643561 0.023722099
1.7219654 0.77664322 0.0233177
1.7222831 0.77687347 0.022970101
1.7226254 0.77713072 0.02269
1.7230021 0.77742583 0.022505
1.7234063 0.77775091 0.0223953
1.7238351 0.77810299 0.0223531
1.7242475 0.77843702 0.022265799
1.7246403 0.77874964 0.0221246
1.7250251 0.77905345 0.0219614
1.725427 0.77937615 0.0218456
1.7258344 0.77970469 0.021744501
1.726279 0.78007418 0.0217459
1.7273036 0.78107923 0.023341101
1.7278045 0.78151035 0.0234973
1.7283049 0.7819407 0.023651499
1.7287841 0.78234804 0.023747999
1.729337 0.78283614 0.024046799
1.7301749 0.78363663 0.025129201
1.7307477 0.78414643 0.025482699
1.731258 0.7845878 0.0256644
1.7317431 0.78500164 0.0257771
1.7322587 0.78544885 0.025973599
1.732792 0.78591549 0.026218601
1.7335041 0.78657794 0.026954699
1.7341865 0.78720796 0.027609799
1.7347829 0.78774375 0.0280283
1.7354332 0.7883386 0.028594799
1.7361094 0.78896165 0.029232301
1.7367944 0.78959453 0.0298943
1.737673 0.79043967 0.031088499
1.7387271 0.79147696 0.032764699
1.7406713 0.79348958 0.036886901
1.7413081 0.79406971 0.037416499
1.7430795 0.79589313 0.041064199
1.7436674 0.79641944 0.041459002
1.7444233 0.79713005 0.0423159
1.7450966 0.79775 0.0429455
1.7457213 0.7983169 0.043441899
1.7462703 0.79880065 0.043730199
1.7469603 0.79943907 0.044405799
1.7476888 0.80011946 0.045187201
1.7483072 0.80067939 0.045666099
1.7488534 0.8011601 0.045946699
1.7494119 0.80165422 0.046261001
1.7499385 0.80211353 0.0464876
1.7504174 0.80252057 0.046583202
1.7509437 0.80297953 0.0468091
1.7514516 0.80341822 0.046984099
1.7521291 0.80404288 0.047625501
1.7526935 0.8045435 0.047956102
1.7532007 0.80498147 0.048129201
1.7537009 0.8054117 0.048283201
1.7542003 0.80584127 0.048435401
1.7546818 0.80625105 0.048537798
1.7551509 0.80664742 0.048606701
1.7556267 0.80704933 0.048687801
1.7561538 0.80750382 0.048896398
1.7566931 0.80797088 0.0491357
1.7571865 0.8083905 0.049259301
1.7576289 0.80875748 0.049254801
1.7580878 0.8091417 0.049292099
1.7585315 0.80950999 0.049290899
1.7589768 0.80988014 0.049293902
1.7594157 0.81024373 0.049280901
1.7598461 0.81059837 0.0492463
1.7602741 0.81095064 0.049205601
1.76073 0.81133163 0.0492354
1.7611662 0.81169236 0.049215399
1.7616237 0.81207502 0.049249001
1.7620796 0.81245589 0.0492783
1.7625448 0.81284654 0.049331199
1.7630225 0.81325001 0.0494156
1.7634903 0.81364334 0.049475301
1.7639415 0.8140195 0.049492899
1.7643898 0.81439263 0.0495033
1.7648431 0.81477106 0.049526501
1.7652986 0.81515157 0.049555
1.7658213 0.81560147 0.0497525
1.766551 0.81626475 0.050470199
1.7670745 0.81671548 0.0506698
1.7675142 0.81707978 0.050658699
1.7679213 0.81741053 0.0505656
1.7683142 0.81772661 0.050436798
1.7687011 0.81803644 0.050292701
1.7690978 0.81835645 0.0501737
1.7696265 0.81881249 0.050386202
1.7702435 0.81935966 0.050820801
1.7706267 0.81966567 0.050667498
1.7709742 0.81993496 0.050424699
1.7712679 0.82014871 0.0500465
1.6979833 0.75906515 0.0379958
1.6994328 0.76053333 0.040755801
1.7000146 0.76105255 0.041133199
1.7006425 0.76162243 0.0416377
1.7013222 0.76224887 0.0422845
1.7020217 0.76289713 0.042985801
1.7025473 0.76335502 0.043209199
1.7030189 0.76375389 0.043284599
1.7035154 0.76418012 0.043428499
1.704106 0.76470906 0.043830302
1.7046494 0.76518643 0.044102799
1.705248 0.76572424 0.044526901
1.7057755 0.76618415 0.0447555
1.7062616 0.76659906 0.044870999
1.7067329 0.76699758 0.044945199
1.7071714 0.76736045 0.044930201
1.7075932 0.76770473 0.044868801
1.7080828 0.76812333 0.044993401
1.7084886 0.76845038 0.044888299
1.7088798 0.7687614 0.044743098
1.7092465 0.76904553 0.044530299
1.7095915 0.76930606 0.044258099
1.7099506 0.76958191 0.044024799
1.7102939 0.7698406 0.043747898
1.710622 0.77008247 0.0434292
1.7109386 0.77031207 0.043079399
1.7112323 0.77051657 0.042666499
1.7115203 0.77071464 0.0422378
1.7118254 0.77093136 0.041855801
1.7120806 0.77109379 0.041337401
1.7123698 0.77129334 0.0409123
1.7126449 0.7714774 0.040448301
1.7128668 0.77160317 0.039838001
1.7130827 0.7717225 0.0392115
1.7133005 0.77184385 0.038589999
1.7135667 0.77201813 0.038101401
1.7138088 0.77216619 0.037546899
1.7140195 0.77227986 0.036906399
1.7141758 0.7723341 0.036116399
1.7143855 0.77244675 0.0354729
1.7146471 0.77261585 0.034971401
1.7149103 0.77278703 0.034474898
1.7151613 0.77294475 0.033945002
1.7154286 0.77312028 0.033459298
1.7157042 0.77330482 0.032996599
1.7159768 0.77348614 0.0325257
1.7162151 0.77363008 0.0319608
1.7164401 0.77375931 0.031359199
1.7166936 0.77391988 0.0308362
1.7169641 0.77409887 0.030359499
1.7172531 0.77429807 0.029933499
1.7175274 0.77448118 0.029467201
1.7178152 0.77467906 0.0290379
1.7181172 0.77489263 0.028647801
1.718421 0.77510804 0.0282625
1.7187238 0.77532232 0.027874401
1.7190255 0.77553558 0.027483599
1.719317 0.77573758 0.027064599
1.7195934 0.77592313 0.0266043
1.7198578 0.77609551 0.026110901
1.7200983 0.7762416 0.0255516
1.7203366 0.77638549 0.0249868
1.7205781 0.77653277 0.0244305
1.7208575 0.7767216 0.023978399
1.7211494 0.77692401 0.0235605
1.7214588 0.77714562 0.0231907
1.7217903 0.77739131 0.0228815
1.7221496 0.77766734 0.0226484
1.7225403 0.77797782 0.0225017
1.7229829 0.77834499 0.022497499
1.7234222 0.7787087 0.022484301
1.7238488 0.77905834 0.022436099
1.7242481 0.77937812 0.022312701
1.7246437 0.77969408 0.0221799
1.7250555 0.78002757 0.022090901
1.725491 0.78038716 0.0220677
1.7260083 0.78083581 0.0222681
1.726882 0.78167444 0.023447201
1.7274058 0.78213042 0.023665899
1.7279012 0.78255546 0.023806799
1.7283883 0.7829712 0.023924701
1.7288615 0.78337181 0.0240042
1.7294594 0.78390896 0.024426701
1.7302256 0.78462982 0.0253105
1.7307687 0.78510696 0.0255822
1.7312529 0.7855196 0.0256921
1.7317299 0.78592449 0.025782401
1.7322327 0.78635746 0.0259433
1.7328341 0.78689831 0.026375201
1.7335411 0.78755468 0.027096801
1.7341876 0.78814483 0.0276522
1.7348824 0.7887876 0.0283402
1.7355937 0.78944874 0.0290736
1.7363387 0.79014659 0.029899601
1.738025 0.79187351 0.033309199
1.7396705 0.79355603 0.036607299
1.7404155 0.79425377 0.037432998
1.7411127 0.7948994 0.038127702
1.7427597 0.79658347 0.041429602
1.743474 0.79724771 0.042171299
1.7441778 0.79790062 0.042884201
1.744815 0.79848045 0.043414
1.7454443 0.79905176 0.043922201
1.7460928 0.79964405 0.044482999
1.7467978 0.80029827 0.045199499
1.7474381 0.80088145 0.045737602
1.748065 0.80145025 0.046239398
1.7486176 0.80193776 0.046537198
1.7491534 0.80240691 0.046788801
1.7496675 0.80285227 0.046980999
1.7501681 0.80328286 0.047136001
1.7507001 0.80374789 0.047377199
1.7512968 0.8042835 0.047795799
1.7518991 0.80482543 0.048230302
1.7524284 0.80528736 0.0484639
1.7529299 0.8057189 0.0486212
1.753432 0.80614769 0.0487675
1.7539135 0.80655485 0.048861101
1.7543794 0.80694622 0.0489158
1.754854 0.8073464 0.048992202
1.7553706 0.80778986 0.049174201
1.7559137 0.80826044 0.049422599
1.7564017 0.80867445 0.0495327
1.7568854 0.80908418 0.0496323
1.7573575 0.80948174 0.049702302
1.7578068 0.80985594 0.049715299
1.7582542 0.81022811 0.049723301
1.7587104 0.8106094 0.0497538
1.7591616 0.81098562 0.049771599
1.7595968 0.8113454 0.0497493
1.7600416 0.81171477 0.0497506
1.7604755 0.81207329 0.049725201
1.7608948 0.81241655 0.049662601
1.7613271 0.81277329 0.049632899
1.7617664 0.81313729 0.049621101
1.7621914 0.81348634 0.049572699
1.7626512 0.81387126 0.0496119
1.7630941 0.81423891 0.049608801
1.7635267 0.814596 0.04958
1.7639773 0.81497157 0.049596298
1.7644076 0.81532621 0.049561601
1.7648821 0.81572628 0.049637601
1.7654244 0.8161962 0.0498842
1.7660681 0.81677032 0.0503853
1.7665638 0.8171922 0.050514799
1.7670112 0.81756437 0.0505227
1.7674319 0.81790924 0.050464001
1.7678255 0.81822622 0.0503374
1.768239 0.81856358 0.050260302
1.7687185 0.81896883 0.050349101
1.7694862 0.81967044 0.051161502
1.7699294 0.82003856 0.0511593
1.7702855 0.82031667 0.0509381
1.7706064 0.82055885 0.050628599
1.7709022 0.82077503 0.050255898
1.7711701 0.82096279 0.049813699
1.7714438 0.82115632 0.0493856
1.6980262 0.76003808 0.038141102
1.6988732 0.76084632 0.039245602
1.6994177 0.76132488 0.039521199
1.7003706 0.76224858 0.040915702
1.7010347 0.76285738 0.041518901
1.7017659 0.76353943 0.042306099
1.7023491 0.76406014 0.042687502
1.7028291 0.76446819 0.042785998
1.70332 0.76488793 0.042913899
1.703891 0.76539528 0.043262001
1.7045364 0.76598364 0.043813702
1.7050838 0.76646531 0.044097099
1.7055722 0.76688248 0.0442186
1.7060672 0.76730669 0.044357698
1.7065303 0.76769626 0.044409499
1.7069554 0.76804441 0.044357501
1.7073834 0.76839566 0.0443132
1.7077887 0.76872218 0.044206701
1.7081795 0.76903284 0.044060402
1.7085497 0.76932126 0.043857899
1.7088971 0.76958454 0.043592699
1.7092216 0.7698229 0.043264501
1.7095274 0.77004087 0.0428853
1.7098285 0.77025372 0.0424929
1.7101589 0.77049857 0.042181298
1.7104912 0.7707454 0.041874401
1.7107958 0.77096212 0.041491799
1.711078 0.77115446 0.041048199
1.7113274 0.77131093 0.040514201
1.7115662 0.77145571 0.039951101
1.7118298 0.77162755 0.039455701
1.7120941 0.77180028 0.038962699
1.7123115 0.77192193 0.038341101
1.7125683 0.77208638 0.037827302
1.7127771 0.77219868 0.037182398
1.7129931 0.77231872 0.0365569
1.7132344 0.7724663 0.036000598
1.7134757 0.77261376 0.035444301
1.7137123 0.7727564 0.0348753
1.7139913 0.77294499 0.034422301
1.7142541 0.77311611 0.033925202
1.7145329 0.77330458 0.033471599
1.714799 0.7734794 0.032983899
1.7150383 0.77362466 0.032421902
1.7152748 0.77376723 0.0318528
1.7155439 0.77394509 0.0313727
1.7157955 0.77410388 0.0308447
1.7160705 0.77428842 0.0303813
1.7163509 0.77447861 0.0299321
1.71664 0.77467823 0.0295067
1.7169287 0.77487767 0.029080801
1.7172097 0.77506864 0.0286335
1.7175002 0.77526987 0.028212201
1.7178059 0.7754876 0.027832299
1.7181158 0.77571023 0.027464701
1.71842 0.77592641 0.027080899
1.7187169 0.77613467 0.026677201
1.7190045 0.77633291 0.026248099
1.7192761 0.77651346 0.0257749
1.7195446 0.77669096 0.0252936
1.7197807 0.77683258 0.0247225
1.720046 0.77700657 0.024232499
1.7203116 0.77718061 0.023742899
1.7206066 0.77738672 0.023333799
1.7209288 0.77762264 0.0229996
1.7212613 0.77786982 0.0226935
1.7216326 0.77815926 0.022493901
1.7220392 0.77848721 0.022391099
1.7224852 0.77885801 0.0223959
1.7229509 0.77925056 0.022455299
1.7234049 0.77963006 0.022482
1.7238231 0.77997065 0.022410899
1.7242211 0.78028929 0.022284601
1.7246268 0.78061616 0.022179101
1.725055 0.78096765 0.0221355
1.7255555 0.78139812 0.0222902
1.7264246 0.7822305 0.023455
1.726974 0.78271425 0.0237439
1.7274715 0.7831412 0.023889801
1.7279402 0.78353703 0.023957601
1.7283901 0.78391218 0.023973299
1.7288698 0.78431976 0.024070701
1.7293938 0.78477585 0.0242898
1.7301468 0.78548163 0.025136599
1.7306911 0.78595972 0.0254112
1.7311877 0.78638595 0.025555201
1.7316877 0.78681564 0.0257081
1.7322865 0.78735334 0.0261323
1.7329707 0.78798413 0.0267906
1.7337071 0.78867173 0.027591901
1.7344404 0.78935617 0.028385
1.7352011 0.79007035 0.0292529
1.7370381 0.79195869 0.0330722
1.738023 0.79291749 0.034554999
1.7396319 0.79455692 0.037748501
1.7404765 0.79536259 0.0388464
1.7416691 0.79654783 0.040898498
1.7424817 0.79731876 0.041908901
1.743228 0.7980172 0.042737301
1.7439301 0.79866755 0.043444801
1.7445971 0.79927951 0.044055801
1.7452378 0.79986292 0.0445951
1.745965 0.80054045 0.0453711
1.7465537 0.80106711 0.0457673
1.7471894 0.80164504 0.0462927
1.747799 0.80219436 0.046746399
1.7483219 0.80264896 0.0469619
1.7488676 0.80312878 0.047240701
1.7493695 0.80356061 0.0473991
1.7498589 0.80397886 0.0475231
1.7504362 0.80449313 0.047888499
1.7510568 0.80505443 0.048372
1.7516303 0.80556208 0.048718199
1.7521251 0.80598295 0.048845399
1.7526177 0.80640155 0.0489669
1.7531247 0.80683506 0.049124699
1.7535995 0.80723536 0.0492015
1.7540584 0.80761933 0.049238499
1.7545563 0.80804354 0.049373601
1.7550995 0.80851412 0.0496221
1.7556255 0.80896693 0.0498273
1.7561047 0.80937183 0.049915198
1.7565706 0.80976301 0.049969699
1.7570441 0.81016207 0.050043501
1.7575021 0.81054521 0.050078198
1.7579583 0.81092644 0.0501085
1.7584029 0.81129587 0.0501098
1.7588429 0.81166041 0.050099298
1.7592927 0.81203514 0.050113399
1.7597373 0.81240451 0.050114598
1.7601806 0.81277245 0.050112501
1.7606251 0.81314182 0.050113499
1.7610428 0.81348354 0.050047301
1.7614675 0.8138324 0.049998201
1.7618725 0.81416118 0.0499002
1.762278 0.81449038 0.049803302
1.7627089 0.81484568 0.049770199
1.7631485 0.81520998 0.049758799
1.7635964 0.81558269 0.049768101
1.7640367 0.81594765 0.049758501
1.7644891 0.81632489 0.049779098
1.7649949 0.81675702 0.049933702
1.7655565 0.81724656 0.050228499
1.7660552 0.81767142 0.050365299
1.7665071 0.81804842 0.050385099
1.7669206 0.81838572 0.050307799
1.7673367 0.81872576 0.0502376
1.7678025 0.81911689 0.0502919
1.7683984 0.81964165 0.050672699
1.769109 0.82028395 0.0513408
1.7695343 0.82063359 0.051293802
1.7698926 0.82091421 0.051078301
1.7702224 0.8211658 0.050791699
1.7705252 0.82138962 0.050437
1.7708023 0.82158709 0.050018098
1.7710571 0.82176173 0.0495435
1.6981946 0.76114738 0.038630102
1.6987286 0.76161397 0.0388758
1.6993448 0.76217008 0.039347101
1.6999078 0.76266837 0.039673001
1.7004992 0.76319754 0.040075999
1.7014219 0.76408714 0.041386601
1.7019948 0.76459622 0.041739501
1.7025745 0.7651127 0.0421107
1.7031021 0.76557237 0.042339299
1.7036887 0.76609641 0.042729698
1.7042431 0.76658511 0.043031301
1.7047544 0.76702702 0.0432151
1.7052429 0.76744431 0.043336902
1.7057054 0.76783317 0.043387201
1.7061512 0.76820391 0.043391898
1.7066041 0.7685824 0.0434159
1.7070265 0.76892757 0.043356199
1.7074361 0.76925886 0.0432618
1.7077857 0.76952487 0.0430029
1.7081363 0.76979196 0.0427467
1.7084609 0.77003074 0.042419098
1.7087805 0.77026403 0.042078
1.7091148 0.7705133 0.041777
1.7094375 0.77075016 0.0414447
1.7097605 0.77098709 0.041112699
1.7100384 0.77117503 0.040657401
1.7103028 0.77134836 0.040165201
1.7105682 0.77152276 0.039675899
1.7108154 0.77167726 0.039136399
1.7110399 0.77180719 0.038534999
1.7112935 0.77196866 0.038012899
1.7115448 0.77212763 0.037484899
1.7117923 0.77228248 0.036946401
1.7120399 0.77243763 0.036408201
1.7123226 0.77263075 0.035966001
1.7125734 0.77278912 0.035436198
1.7128237 0.77294707 0.034905501
1.713091 0.77312344 0.034421001
1.7133764 0.77331972 0.033986699
1.7136512 0.77350414 0.033522502
1.7139194 0.7736817 0.033041
1.7141569 0.77382565 0.032474801
1.7144005 0.77397621 0.031925499
1.7146611 0.77414536 0.031422999
1.7149264 0.77431965 0.030933199
1.7151883 0.77449006 0.030433699
1.7154642 0.77467585 0.029973
1.7157433 0.77486521 0.029521201
1.7160352 0.7750684 0.0291043
1.7163244 0.77526867 0.0286799
1.7166171 0.77547276 0.0282654
1.7169265 0.77569485 0.027895801
1.7172399 0.77592146 0.0275378
1.7175324 0.77612543 0.0271229
1.7178357 0.77634096 0.026737001
1.7181383 0.7765559 0.026349399
1.7184429 0.77677292 0.025967199
1.7187271 0.7769677 0.025529301
1.7189775 0.77712578 0.0249986
1.7192395 0.77729625 0.0244994
1.7195008 0.7774663 0.023999
1.7197849 0.77766085 0.023560399
1.7200707 0.77785754 0.023127001
1.7203856 0.77808565 0.0227728
1.7207179 0.77833289 0.022466701
1.7210844 0.77861738 0.0222541
1.7214872 0.77894104 0.0221406
1.7219282 0.77930665 0.022132199
1.7224077 0.77971411 0.0222292
1.7229186 0.78015566 0.022412101
1.7233505 0.78051126 0.022378599
1.7237495 0.78083092 0.022254899
1.7241648 0.78116852 0.022176201
1.724584 0.78151006 0.0221074
1.7250332 0.78188443 0.0221211
1.7256092 0.78239691 0.022482499
1.7264817 0.78323197 0.0236557
1.7269932 0.78367424 0.0238402
1.7274449 0.7840513 0.023861
1.7278955 0.78442729 0.0238788
1.7283539 0.78481162 0.023917601
1.7287905 0.7851724 0.023897201
1.7293499 0.78566664 0.024212601
1.7299792 0.786237 0.0247197
1.7305526 0.78674656 0.0250737
1.7311646 0.7872982 0.0255336
1.7318145 0.78789097 0.0260971
1.732533 0.78855848 0.026848599
1.7334453 0.78943694 0.0281308
1.734177 0.79011881 0.028918499
1.7364569 0.79248559 0.033946201
1.7371761 0.79315388 0.0346996
1.7386142 0.79460454 0.037421901
1.7395811 0.7955423 0.038853601
1.7405854 0.79652083 0.040387802
1.7413816 0.79727298 0.041352101
1.7421634 0.79800928 0.0422768
1.7429528 0.79875392 0.043222401
1.7436285 0.79937488 0.0438568
1.7443184 0.80001116 0.044529598
1.7450026 0.80064136 0.045187201
1.7456738 0.80125737 0.045809101
1.7462789 0.80180144 0.0462499
1.7468833 0.80234462 0.046688698
1.7474936 0.80289447 0.047143899
1.7480046 0.80333608 0.0473269
1.7485353 0.80379909 0.047563899
1.7490321 0.80422544 0.047708299
1.7495455 0.80466962 0.047897901
1.7501608 0.80522478 0.0483668
1.7507473 0.80574572 0.0487458
1.7512863 0.80621171 0.048983499
1.7517842 0.80663562 0.049118001
1.752277 0.80705428 0.049240001
1.7527664 0.80746943 0.049353302
1.7532309 0.8078593 0.049404498
1.7537355 0.80829006 0.049555998
1.7542868 0.80876869 0.049824599
1.7548187 0.80922747 0.050044399
1.7553353 0.80967057 0.0502261
1.7558289 0.81008995 0.050349601
1.7562904 0.81047678 0.0503936
1.7567621 0.81087381 0.050462399
1.7572286 0.81126559 0.050518502
1.7576728 0.8116346 0.050518699
1.7581229 0.81200969 0.050533898
1.7585691 0.81238049 0.050538599
1.7590114 0.8127476 0.0505342
1.7594665 0.81312764 0.050561499
1.7598916 0.81347716 0.050514199
1.7603147 0.8138243 0.050461099
1.7607429 0.81417692 0.050421201
1.7611666 0.81452489 0.050370101
1.7615732 0.81485534 0.050276
1.761974 0.81517988 0.050167501
1.7623942 0.81552416 0.050107401
1.762815 0.81586909 0.050048899
1.7632384 0.81621695 0.049997199
1.7636642 0.81656688 0.049950901
1.7640983 0.81692553 0.049925901
1.764571 0.81732368 0.049997501
1.7650682 0.81774688 0.0501302
1.7655522 0.8181566 0.050230298
1.7660127 0.81854212 0.050271101
1.7664411 0.81889498 0.050231799
1.7668705 0.8192488 0.0501949
1.767356 0.81966007 0.050298601
1.7680128 0.82024664 0.050831199
1.7686216 0.82078409 0.051243801
1.7690555 0.82114255 0.0512181
1.7694384 0.82144874 0.0510647
1.7697965 0.82172954 0.050849199
1.770118 0.82197297 0.050542198
1.7704226 0.82219893 0.050192598
1.7707044 0.8224014 0.049785499
1.7709503 0.82256734 0.049288899
1.6972748 0.76118743 0.037355602
1.6980034 0.76186514 0.0381338
1.6986694 0.76247489 0.038740698
1.6992266 0.76296651 0.039050002
1.6997643 0.76343703 0.039305899
1.7003777 0.76398969 0.039769001
1.7011508 0.76471573 0.0406687
1.70182 0.765329 0.041284598
1.7024002 0.76584566 0.041657001
1.7029305 0.76630807 0.041892398
1.7034758 0.76678687 0.0421694
1.7039633 0.76720279 0.042287901
1.704419 0.76758426 0.0423196
1.704855 0.76794428 0.0422973
1.7052746 0.76828659 0.042230301
1.7056829 0.76861644 0.042132001
1.7060722 0.76892585 0.0419822
1.7064687 0.769243 0.0418518
1.7068462 0.76953971 0.041669901
1.7072715 0.76988786 0.0416178
1.7076797 0.77021784 0.041519601
1.7080529 0.77050954 0.041325402
1.7083912 0.77076352 0.041035801
1.7087028 0.77098852 0.040673301
1.7089969 0.77119446 0.040262699
1.7092912 0.77140087 0.039853301
1.7095662 0.771586 0.039390501
1.7098278 0.77175671 0.038891099
1.7100651 0.77190101 0.038325202
1.7103263 0.77207118 0.037824798
1.7105857 0.77223951 0.037319399
1.7108707 0.77243561 0.0368842
1.7111595 0.7726357 0.036458898
1.7114311 0.77281737 0.035987198
1.7116933 0.77298862 0.035489202
1.7119514 0.77315557 0.034980401
1.7122209 0.7733348 0.034502599
1.7124894 0.7735129 0.034022
1.7127615 0.77369505 0.0335516
1.7130165 0.77385855 0.033034001
1.7132608 0.77401042 0.032487199
1.7135109 0.77416861 0.031956501
1.7137787 0.77434611 0.0314743
1.7140412 0.77451771 0.030977201
1.7143216 0.77470875 0.030529199
1.7145994 0.77489698 0.030074099
1.7148798 0.77508801 0.029626001
1.7151816 0.77530241 0.0292366
1.7154725 0.77550495 0.0288176
1.7157592 0.77570289 0.0283869
1.7160618 0.77591813 0.0279999
1.7163708 0.77614021 0.027630201
1.7166663 0.77634764 0.0272233
1.7169703 0.77656442 0.0268401
1.7172745 0.77678132 0.0264572
1.7175815 0.77700126 0.026081899
1.7178842 0.77721661 0.0256951
1.7181624 0.77740544 0.025241399
1.7184409 0.77759433 0.024788
1.7186928 0.77775455 0.024262
1.7189583 0.77792943 0.0237734
1.7192268 0.77810758 0.0232928
1.7195306 0.77832401 0.022908701
1.7198504 0.7785579 0.022568701
1.7201767 0.77879894 0.0222464
1.7205324 0.77907169 0.022004301
1.7209231 0.77938253 0.0218581
1.7213275 0.77970827 0.021749601
1.7217584 0.78006279 0.0217133
1.7223283 0.7805683 0.022057399
1.7228379 0.78100812 0.022236301
1.7232655 0.78135914 0.0221911
1.7236691 0.78168392 0.0220802
1.7240748 0.78201115 0.021975201
1.7244947 0.78235388 0.021909099
1.7249398 0.78272361 0.021911399
1.7254401 0.78315365 0.022065399
1.726339 0.78401625 0.0233094
1.7268792 0.78448933 0.023572
1.7273299 0.78486532 0.0235897
1.7277875 0.78524899 0.023626899
1.7282259 0.78561169 0.0236113
1.7287253 0.78604048 0.023762399
1.7293038 0.78655529 0.02413
1.7299478 0.78714108 0.0246766
1.7306154 0.78775269 0.025288099
1.7315283 0.7886306 0.026570501
1.7326417 0.78972614 0.0284012
1.7333233 0.79035294 0.029051101
1.7341179 0.79110241 0.030009801
1.7362849 0.79334193 0.034722801
1.7369405 0.79394042 0.035301302
1.7385263 0.79554904 0.038424801
1.7394211 0.79640722 0.0396576
1.7402471 0.79719079 0.040702298
1.7410042 0.79789937 0.041558299
1.7418888 0.79874671 0.042763598
1.7426285 0.79943639 0.043571699
1.7433343 0.80008948 0.044287801
1.7440227 0.80072367 0.0449562
1.7446735 0.80131674 0.0455212
1.7453225 0.80190808 0.046081699
1.7459475 0.80247331 0.046576299
1.7465354 0.80299848 0.046969999
1.7471162 0.80351579 0.047343999
1.7476609 0.8039937 0.047618698
1.7481924 0.8044576 0.047858
1.7486871 0.80488139 0.047996402
1.7492201 0.80534661 0.048239298
1.749831 0.80589509 0.048689801
1.75043 0.80642211 0.049077298
1.7509389 0.80685711 0.0492393
1.7514226 0.80726653 0.049338602
1.7519246 0.80769461 0.0494835
1.7524495 0.80814588 0.0496854
1.7529782 0.8086012 0.049897101
1.7535182 0.80906802 0.050136998
1.7540134 0.80948913 0.050264899
1.7545069 0.80990839 0.0503884
1.7550356 0.81036377 0.0506001
1.755532 0.81078607 0.050731
1.7560024 0.81118166 0.050796598
1.7564855 0.81159025 0.050893899
1.7569383 0.81196809 0.050915699
1.7573764 0.81233072 0.0509005
1.7578253 0.81270444 0.050912499
1.7582703 0.81307417 0.050914399
1.7587124 0.81344116 0.050909601
1.7591419 0.81379503 0.0508729
1.759586 0.81416386 0.050872799
1.760035 0.81453776 0.050884999
1.7604558 0.81488281 0.050826699
1.7608932 0.81524479 0.0508097
1.7613094 0.81558514 0.050739899
1.7617006 0.81589997 0.050607398
1.762094 0.81621706 0.050480399
1.7625002 0.8165471 0.0503853
1.7629176 0.81688857 0.050318401
1.7633239 0.8172189 0.050223801
1.7637334 0.81755239 0.050137099
1.7641741 0.81791782 0.050128601
1.7646282 0.81829673 0.0501532
1.7650878 0.81868148 0.0501922
1.7655487 0.81906754 0.050234102
1.7659771 0.81942034 0.050194699
1.7664139 0.81978172 0.0501763
1.7669427 0.82023722 0.050388601
1.7675894 0.82081294 0.0508953
1.7681136 0.82126361 0.051095601
1.7685578 0.8216325 0.051095702
1.7689556 0.82195407 0.0509797
1.7693361 0.82225794 0.0508205
1.7696863 0.82253087 0.0505854
1.7700205 0.82278746 0.050310299
1.7703252 0.8230139 0.049961399
1.7706062 0.82321602 0.049552701
1.6973219 0.76216489 0.0375125
1.6980256 0.76281506 0.038222
1.698617 0.76334339 0.0386241
1.6991427 0.76380074 0.038847201
1.6996512 0.76423931 0.039023001
1.7004005 0.76493877 0.0398569
1.7010646 0.76554596 0.040457901
1.7016486 0.76606631 0.040839899
1.7022252 0.76657885 0.041202299
1.702746 0.76703072 0.0414115
1.7032442 0.7674582 0.041559398
1.7037292 0.76787126 0.0416709
1.7041696 0.7682361 0.0416607
1.7045605 0.76854724 0.041515201
1.7049557 0.7688632 0.041381601
1.7053617 0.76919073 0.041277401
1.7057837 0.76953566 0.041216899
1.7061963 0.7698704 0.041130599
1.7066171 0.77021396 0.041066799
1.7070071 0.7705242 0.040918902
1.7073576 0.77079165 0.040663
1.7076977 0.77104789 0.040378898
1.7080116 0.7712757 0.040022999
1.7083251 0.77150309 0.039666101
1.7086172 0.77170718 0.039250501
1.7088866 0.77188677 0.038773201
1.7091379 0.77204674 0.038246099
1.7093999 0.77221835 0.0377484
1.7097015 0.7724328 0.037358899
1.7099965 0.77264005 0.036951099
1.7102604 0.77281368 0.036458801
1.7105196 0.77298212 0.035953201
1.7107793 0.77315128 0.035449401
1.7110518 0.77333421 0.034980401
1.7113352 0.77352899 0.034541
1.7115967 0.77370012 0.034042299
1.7118587 0.7738716 0.033544499
1.7121387 0.77406263 0.0330959
1.7123997 0.7742331 0.0325954
1.7126724 0.77441615 0.032126699
1.7129403 0.77459431 0.031645499
1.7132053 0.77476913 0.031155899
1.713475 0.77494895 0.0306793
1.7137421 0.77512604 0.0301954
1.7140306 0.77532631 0.0297701
1.7143129 0.77551991 0.0293278
1.714605 0.77572405 0.0289125
1.7149239 0.77595729 0.028570199
1.7152253 0.77617157 0.028180201
1.7155226 0.77638143 0.027779
1.7158183 0.77658939 0.027373301
1.7161155 0.77679908 0.026971599
1.7164167 0.77701312 0.026581099
1.716715 0.77722394 0.026182501
1.7170151 0.77743697 0.025789101
1.7173332 0.77766931 0.0254448
1.7176384 0.77788746 0.0250648
1.7178993 0.77805799 0.0245643
1.7181604 0.77822852 0.024064001
1.7184104 0.77838719 0.0235337
1.718695 0.77858317 0.023097601
1.7189988 0.77879995 0.0227139
1.7193218 0.77903771 0.022383301
1.7196579 0.77928948 0.022087701
1.7199973 0.77954489 0.0218016
1.7203621 0.77982783 0.0215848
1.7207417 0.78012687 0.021408601
1.7211473 0.78045386 0.021303
1.7215908 0.78082204 0.0213011
1.7221313 0.7812953 0.0215645
1.7226881 0.78178626 0.0218725
1.7231137 0.78213501 0.021821599
1.7235308 0.78247476 0.021748099
1.7239465 0.78281283 0.021670399
1.72438 0.78317022 0.0216412
1.7248436 0.78356022 0.021694601
1.7253474 0.78399366 0.021857399
1.7259662 0.78455174 0.0223347
1.7266097 0.78513664 0.022879601
1.7271442 0.78560352 0.023126701
1.7276559 0.78604549 0.023311101
1.7281722 0.78649247 0.0235081
1.7287835 0.78704256 0.0239652
1.7294701 0.78767407 0.0246277
1.730574 0.78875768 0.0264304
1.7317399 0.78990847 0.0284028
1.7324648 0.79058146 0.0291699
1.7330339 0.79108572 0.0295114
1.7353815 0.79351676 0.034712799
1.7359709 0.79404294 0.035109598
1.736639 0.79465461 0.035721902
1.7382009 0.79623431 0.0387762
1.7391639 0.79716527 0.0401939
1.7398847 0.79783392 0.040950201
1.7406576 0.79855889 0.041848298
1.7415044 0.79936421 0.042948999
1.7422416 0.80005056 0.043749899
1.7429904 0.80074942 0.044582099
1.7436423 0.80134344 0.045150001
1.7442967 0.80194002 0.045724399
1.7449214 0.80250454 0.046218
1.7455814 0.80310732 0.046807799
1.7461745 0.8036375 0.047214702
1.7467365 0.80413419 0.047536999
1.7472773 0.80460757 0.047800802
1.7477864 0.80504692 0.047978502
1.7482938 0.80548435 0.048151299
1.7488467 0.80597103 0.048448399
1.7494558 0.8065123 0.0488762
1.7500378 0.80702162 0.049220901
1.7505525 0.80746257 0.049397498
1.7510992 0.80793601 0.049653899
1.7516639 0.80842781 0.049955402
1.7522157 0.8089065 0.050224502
1.752741 0.809358 0.050427299
1.7532288 0.80977136 0.050536301
1.753711 0.81017911 0.050631698
1.7542356 0.81063002 0.050833002
1.7547426 0.81106293 0.05099
1.7552185 0.81146437 0.0510698
1.7556969 0.81186795 0.0511549
1.756168 0.81226432 0.051222499
1.756617 0.81263816 0.051234599
1.7570575 0.81300342 0.051225699
1.7575175 0.81338841 0.051265098
1.7579591 0.81375474 0.051258899
1.7584201 0.81414092 0.0513012
1.7588696 0.81451529 0.0513146
1.7592902 0.81485999 0.051255401
1.7597294 0.81522387 0.051243301
1.7601578 0.81557685 0.051204
1.7605907 0.81593418 0.0511759
1.7610028 0.81627041 0.051095601
1.7613961 0.81658745 0.050968401
1.7617888 0.81690395 0.050840098
1.7621891 0.81722826 0.050730702
1.7625904 0.8175534 0.050623398
1.7629738 0.81786031 0.050471399
1.7633793 0.81818992 0.0503751
1.7637991 0.81853378 0.050313801
1.7642174 0.81887639 0.0502492
1.7646648 0.81924868 0.0502575
1.7651122 0.81962073 0.050265301
1.7655551 0.81998855 0.050262701
1.7659903 0.82034826 0.0502402
1.7665228 0.82080722 0.0504613
1.7671304 0.82134283 0.050870001
1.7676181 0.82175606 0.050978798
1.7680627 0.82212526 0.050979801
1.7684704 0.82245708 0.0508889
1.7688526 0.82276279 0.050733902
1.7692376 0.82307154 0.050586399
1.7696068 0.82336396 0.050398801
1.7699722 0.82365268 0.050202001
1.770384 0.82398838 0.050120998
1.7710236 0.82455659 0.050609801
1.6967446 0.76246732 0.035964701
1.6972551 0.76290798 0.036146
1.6984062 0.76404095 0.0380756
1.6989766 0.76454639 0.038420402
1.6995277 0.76503086 0.038712401
1.7002453 0.76569515 0.039458402
1.7008536 0.76624167 0.0399068
1.7013556 0.76667303 0.040064801
1.7018999 0.76715022 0.040338099
1.7024032 0.76758301 0.040499602
1.7029001 0.76800877 0.0406432
1.7033858 0.76842284 0.040757298
1.7038232 0.7687844 0.040738899
1.7042719 0.76915812 0.0407511
1.7047025 0.76951236 0.040714201
1.7051438 0.76987827 0.040706601
1.7055861 0.77024502 0.0407013
1.7059798 0.77055955 0.0405639
1.7063396 0.77083719 0.040333498
1.7066751 0.7710886 0.040036701
1.7070088 0.77133822 0.039735701
1.7073305 0.77157462 0.039400999
1.7076396 0.77179766 0.039032798
1.7079395 0.77201068 0.038639002
1.7082354 0.77221924 0.038234401
1.7085127 0.77240783 0.037778899
1.7087923 0.77259886 0.037329901
1.7090709 0.772789 0.036878198
1.7093476 0.77297676 0.036421102
1.7096108 0.77315021 0.035927299
1.7098703 0.77331942 0.035423402
1.710135 0.77349436 0.034933399
1.7103908 0.77365971 0.034419499
1.7106673 0.77384722 0.033961602
1.7109662 0.77405936 0.0335657
1.7112472 0.77425176 0.033119898
1.7115356 0.77445245 0.0326951
1.711827 0.7746563 0.0322784
1.7120957 0.77483553 0.031799499
1.7123735 0.77502459 0.0313452
1.7126373 0.7751984 0.0308527
1.7128977 0.77536869 0.030351199
1.713178 0.77556062 0.0299043
1.7134652 0.77575988 0.029476101
1.7137659 0.77597368 0.029084301
1.7140634 0.7761842 0.0286844
1.7143636 0.77639741 0.028291401
1.7146631 0.77661002 0.027896799
1.7149721 0.77683288 0.027527999
1.7152721 0.77704579 0.027133999
1.7155617 0.77724785 0.026712799
1.7158573 0.77745605 0.026306899
1.7161558 0.77766752 0.0259095
1.7164639 0.77788955 0.0255385
1.7167801 0.77811998 0.025188901
1.7170867 0.77834016 0.0248133
1.7173629 0.77852762 0.024355199
1.7176279 0.77870286 0.023866201
1.7178977 0.77888322 0.0233902
1.7181677 0.77906394 0.022915
1.718454 0.77926224 0.0224842
1.7187778 0.77950102 0.0221556
1.7191225 0.77976257 0.021884499
1.7194666 0.78002316 0.021610999
1.7198174 0.78029126 0.021356501
1.7201816 0.78057373 0.021138299
1.7205632 0.78087491 0.0209674
1.720978 0.78121221 0.0208875
1.7214043 0.78156173 0.020838801
1.7218677 0.78195143 0.0208914
1.7224109 0.78242737 0.0211617
1.7229315 0.78287905 0.021370601
1.7233734 0.78324544 0.021364599
1.7238007 0.78359604 0.0213183
1.7242589 0.78398025 0.021357
1.7247468 0.78439635 0.0214763
1.7252815 0.78486305 0.021723401
1.7258701 0.78538823 0.022118101
1.726505 0.78596324 0.0226385
1.7270834 0.78647739 0.023005201
1.7276934 0.78702545 0.0234577
1.7283686 0.78764403 0.024088399
1.7296053 0.78886944 0.0262515
1.7307301 0.78997403 0.0281094
1.7315373 0.79073542 0.029100601
1.7321776 0.79131633 0.029635901
1.7332637 0.79237914 0.031388398
1.7350129 0.79415858 0.034950402
1.7356871 0.7947762 0.0355785
1.737836 0.79687637 0.0390191
1.7388171 0.79782552 0.0404847
1.7395473 0.79850358 0.041265398
1.7402805 0.79918504 0.042054601
1.7410785 0.79993629 0.043020401
1.7418541 0.80066347 0.0439252
1.7426015 0.80136019 0.044753101
1.7432326 0.80193108 0.045263201
1.7439036 0.80254525 0.045882601
1.7445031 0.80308205 0.0463068
1.7452056 0.80373025 0.047011901
1.7457916 0.80425239 0.047398999
1.7463349 0.80472851 0.047669899
1.7468586 0.80518341 0.047887001
1.7473654 0.80561978 0.0480575
1.7478898 0.80607557 0.048277002
1.7484654 0.80658644 0.0486353
1.7490582 0.80710649 0.049006499
1.7496648 0.80764055 0.049412102
1.7502276 0.80813003 0.049708501
1.7508227 0.80865252 0.0500856
1.7513884 0.80914515 0.050389402
1.7518932 0.80957574 0.050540701
1.7523936 0.81000173 0.050681099
1.7528812 0.81041479 0.050789598
1.7533931 0.81085265 0.050958801
1.753927 0.81131285 0.051183201
1.7544161 0.81172746 0.0512955
1.7549024 0.81213903 0.051400501
1.7553705 0.81253248 0.051460601
1.7558116 0.81289828 0.051452901
1.7562541 0.81326544 0.051449101
1.7567146 0.81365097 0.0514898
1.7571859 0.81404757 0.051557899
1.7576418 0.81442839 0.051587202
1.7581061 0.81481767 0.0516374
1.7585338 0.81516999 0.051596601
1.7589668 0.81552756 0.051568698
1.7594211 0.81590658 0.051593799
1.7598424 0.81625235 0.051536798
1.760257 0.81659114 0.051463
1.7606753 0.81693381 0.051398799
1.7610819 0.8172645 0.051305
1.7614728 0.81757927 0.0511721
1.7618666 0.8178969 0.0510461
1.7622577 0.81821191 0.0509138
1.7626476 0.81852567 0.0507784
1.7630364 0.81883824 0.050640099
1.7634373 0.81916296 0.050531801
1.7638563 0.81950629 0.0504691
1.7642704 0.81984478 0.0503943
1.7646928 0.8201915 0.050339799
1.7651244 0.82054764 0.050308701
1.7655771 0.82092535 0.050330199
1.7661102 0.82138461 0.050552201
1.7666512 0.82185197 0.050794002
1.7671062 0.82223189 0.0508212
1.7675337 0.82258391 0.050779801
1.7679629 0.82293755 0.050742298
1.768366 0.82326478 0.050639901
1.7687606 0.82358319 0.050516099
1.7691804 0.82392728 0.050455399
1.7696524 0.82432455 0.050524902
1.7702967 0.82489693 0.051024701
1.7707244 0.82524925 0.050983898
1.7710878 0.82553589 0.050781999
1.7714024 0.82577306 0.050458599
1.6962051 0.76281345 0.034523901
1.696874 0.76342475 0.0351367
1.6980835 0.76461881 0.037223201
1.6987758 0.76525545 0.037900001
1.6993586 0.76577377 0.038277999
1.6999245 0.76627398 0.0386099
1.7004535 0.76673442 0.0388414
1.7009809 0.76719296 0.039068099
1.7014257 0.76756263 0.0390702
1.7018889 0.76795208 0.039122101
1.7023398 0.76832825 0.039140601
1.7028478 0.76876611 0.039314799
1.7035115 0.76937163 0.0399133
1.7040319 0.76982284 0.040121201
1.7044715 0.77018672 0.040108699
1.7048666 0.77050287 0.0399752
1.7052366 0.77079165 0.039772902
1.7056133 0.77108771 0.039588802
1.7059476 0.77133834 0.039289601
1.7062409 0.77154452 0.038878299
1.7065707 0.77179015 0.038566701
1.7068851 0.77201921 0.038213201
1.707183 0.77223039 0.037814401
1.7074752 0.77243531 0.0374001
1.7077764 0.77265018 0.037010401
1.708084 0.77287167 0.036637802
1.7083704 0.77307063 0.036208201
1.7086303 0.77324069 0.0357056
1.7089103 0.77343255 0.035257999
1.7091841 0.77361774 0.0347935
1.7094437 0.77378774 0.034290701
1.7097212 0.77397698 0.033836499
1.7100346 0.77420473 0.033479799
1.7103347 0.77441823 0.0330869
1.7106272 0.77462381 0.032673702
1.710927 0.77483702 0.0322803
1.7112368 0.77506113 0.031914201
1.7115206 0.77525675 0.0314763
1.7117949 0.77544266 0.0310135
1.7120587 0.77561706 0.030521899
1.7123169 0.77578545 0.0300151
1.7126156 0.77599758 0.0296186
1.7129059 0.77620041 0.0291989
1.7131977 0.7764051 0.0287838
1.7135035 0.7766248 0.028406501
1.7138039 0.77683866 0.0280146
1.714102 0.77705014 0.0276166
1.7144052 0.77726698 0.0272323
1.7147152 0.77749139 0.0268669
1.7150214 0.77771133 0.0264904
1.7153143 0.77791715 0.026078099
1.7156074 0.77812314 0.0256663
1.7159201 0.77835035 0.025307899
1.7162431 0.77858865 0.0249779
1.7165482 0.77880752 0.024598699
1.7168217 0.77899235 0.024133399
1.7171006 0.77918321 0.023683099
1.7173758 0.77936989 0.0232225
1.7176555 0.77956146 0.0227743
1.7179619 0.77978164 0.0223983
1.7182759 0.78001022 0.022043601
1.7186069 0.78025723 0.0217354
1.7189521 0.78051931 0.0214653
1.7192993 0.78078383 0.021201501
1.7196597 0.7810623 0.020973001
1.7200327 0.78135443 0.020778799
1.7204387 0.78168213 0.020674801
1.7208703 0.78203744 0.0206405
1.7212771 0.78236622 0.0205392
1.72173 0.78274447 0.0205628
1.7222195 0.78316224 0.020686399
1.7226969 0.78356707 0.020777101
1.7232009 0.78400052 0.020940499
1.7236922 0.78442019 0.0210688
1.7242196 0.78487879 0.0212957
1.7247746 0.78536737 0.021598199
1.7253717 0.78590125 0.0220153
1.7260242 0.78649479 0.022583401
1.7266449 0.78705406 0.0230648
1.7274129 0.78777224 0.0239479
1.7287754 0.78913128 0.0264515
1.7296642 0.78997976 0.0276639
1.7306312 0.79091263 0.0290897
1.7312694 0.79149055 0.029618399
1.7326272 0.79284465 0.032109398
1.7331733 0.79332352 0.032387499
1.7347506 0.79491448 0.035477001
1.7355007 0.79561329 0.036311299
1.7365354 0.79661906 0.037921399
1.737456 0.79750168 0.0392203
1.7384629 0.79847753 0.040754899
1.739154 0.79911262 0.0414281
1.7398751 0.79978013 0.042183202
1.740706 0.8005662 0.0432376
1.7414815 0.8012923 0.044140998
1.7421638 0.80191803 0.044790398
1.742825 0.80252099 0.045382299
1.7434618 0.80309761 0.045907602
1.7440311 0.8036015 0.0462487
1.7446771 0.80418813 0.046799298
1.74535 0.80480361 0.047422901
1.7458905 0.80527651 0.047685601
1.7464131 0.80572987 0.047899399
1.746958 0.80620748 0.048174299
1.7475274 0.80671138 0.048515599
1.7481532 0.80726731 0.0489785
1.748723 0.80776376 0.049292199
1.7493355 0.80830342 0.0497123
1.7499202 0.80881494 0.050062899
1.7504909 0.80931234 0.050378799
1.7510167 0.80976403 0.050582401
1.7515188 0.81019181 0.050727099
1.7520134 0.81061184 0.050852999
1.7525179 0.81104207 0.051003601
1.75305 0.81150007 0.051222999
1.7535685 0.81194448 0.051408499
1.7540594 0.81236082 0.051525299
1.7545348 0.81276143 0.051603399
1.7549901 0.81314158 0.0516311
1.7554333 0.81350958 0.051628798
1.7558857 0.81388676 0.051649399
1.7563732 0.81429964 0.051757298
1.7568545 0.81470621 0.051850099
1.7573146 0.81509125 0.051889699
1.7577831 0.81548476 0.051950399
1.7582084 0.8158347 0.051903799
1.758646 0.81619698 0.051887501
1.7590712 0.81654668 0.051840398
1.759493 0.81689274 0.051784199
1.7599058 0.81722993 0.051706199
1.7603314 0.81757987 0.051659901
1.7607249 0.81789756 0.0515338
1.7611244 0.81822097 0.051422101
1.7615222 0.8185429 0.051306501
1.7619146 0.81885922 0.051177401
1.762313 0.81918168 0.051063299
1.7627054 0.81949818 0.0509344
1.7630856 0.81980228 0.050774999
1.7634809 0.82012153 0.050652999
1.7638893 0.82045418 0.050564099
1.764307 0.82079607 0.050497901
1.7647126 0.82112586 0.050401598
1.7651415 0.82147932 0.0503636
1.7656572 0.82192093 0.050542399
1.7661588 0.822348 0.050685599
1.7665954 0.82270926 0.050666898
1.7670219 0.82306027 0.050622899
1.767445 0.82340789 0.050570302
1.7678629 0.82375002 0.0505048
1.7682824 0.82409406 0.050443601
1.7687368 0.82447326 0.050469201
1.7694564 0.82512164 0.051156301
1.770027 0.8256188 0.051471699
1.7703953 0.82591081 0.0512826
1.7707148 0.82615328 0.050971702
1.7710031 0.82636404 0.050583001
1.7712748 0.82655787 0.0501526
1.6961659 0.76370031 0.034448501
1.696599 0.7640574 0.0344184
1.6979295 0.76537985 0.036832299
1.6985235 0.76590997 0.037240401
1.6992112 0.76654094 0.0379037
1.6997529 0.76701474 0.038169298
1.7002827 0.76747584 0.0384028
1.7007716 0.76789278 0.0385244
1.7012335 0.76828092 0.038573001
1.7016902 0.76866323 0.038607199
1.7021185 0.76901501 0.038564
1.7025607 0.76938188 0.038558699
1.7031305 0.7698859 0.038900901
1.7036747 0.7703625 0.039173499
1.7040695 0.77067822 0.039039001
1.7043873 0.77091122 0.038695101
1.7047322 0.77117342 0.038424801
1.705109 0.77146977 0.038241401
1.7054573 0.77173567 0.037980702
1.7057745 0.77196789 0.037634801
1.7061019 0.77221119 0.0373169
1.7064375 0.7724632 0.037021101
1.7067614 0.77270275 0.0366937
1.7070715 0.77292746 0.0363288
1.7073803 0.77315074 0.035960201
1.7076855 0.77337021 0.035581902
1.7079836 0.77358192 0.035184
1.7082553 0.77376533 0.034714598
1.7085345 0.7739566 0.034265
1.7088251 0.77416044 0.033847202
1.7091258 0.7743749 0.033456199
1.7094277 0.77459091 0.033069499
1.7097473 0.77482581 0.032730199
1.7100518 0.77504438 0.032349799
1.7103565 0.77526319 0.031969901
1.7106479 0.77546781 0.031554099
1.7109423 0.77567554 0.031145999
1.71121 0.77585459 0.030665699
1.7114673 0.77602261 0.030157
1.7117296 0.7761957 0.0296617
1.7120314 0.77641153 0.0292741
1.7123305 0.77662432 0.028879199
1.712635 0.77684307 0.028498899
1.7129471 0.77706975 0.0281392
1.7132537 0.77729076 0.027764799
1.7135589 0.77751017 0.0273863
1.7138593 0.77772427 0.0269948
1.7141529 0.77793133 0.026585
1.7144629 0.77815586 0.0262195
1.7147757 0.77838337 0.0258619
1.7150918 0.77861464 0.025513301
1.7153975 0.77883446 0.0251361
1.7157053 0.77905667 0.024764899
1.7160021 0.77926707 0.024363499
1.7163113 0.77949071 0.0239961
1.7165984 0.77969068 0.023568399
1.7168672 0.77987099 0.023091
1.7171627 0.78008002 0.0226864
1.7174784 0.78031063 0.0223365
1.7178001 0.7805478 0.022003099
1.7181321 0.78079605 0.021697599
1.7184747 0.78105569 0.021421099
1.7188237 0.78132212 0.021161901
1.7191918 0.78160924 0.020954801
1.7195727 0.78191012 0.020782599
1.7199614 0.78221935 0.020631701
